ply
format ascii 1.0
element vertex 821
property float x
property float y
property float z
property float nx
property float ny
property float nz
end_header
-0.401008 -0.937276 -0.210833 -0.0844102 0.994827 -0.0565192
-0.392541 -0.929675 -0.231314 -0.093768 0.992706 -0.0757765
-0.38106 0.0337785 0.22881 -0.165916 -0.839473 -0.517452
-0.398949 0.0243974 0.231842 0.0680147 0.822145 0.5652
-0.357549 0.0136749 0.256211 0.171445 -0.888715 -0.425197
-0.27113 -0.479828 0.549564 0.140026 0.624384 0.768465
-0.258067 -0.482138 0.552737 0.197783 0.653032 0.731048
-0.261263 -0.460036 0.544475 -0.168937 -0.732557 -0.659409
-0.951149 0.583745 0.0677078 0.520544 -0.776851 -0.354312
-0.941722 0.595729 0.0562803 0.470726 -0.830039 -0.299085
-0.952785 0.588319 0.0559199 -0.541178 0.765297 0.348491
-0.316486 0.49291 0.0316147 0.42359 -0.887541 -0.181224
-0.316525 0.497496 0.0187272 0.371212 -0.887491 -0.273061
-0.293602 0.50314 0.0288605 0.381496 -0.893456 -0.237058
-1.0473 0.434541 0.0352355 -0.988845 0.139219 0.052951
-1.04358 0.449449 0.0443115 -0.970026 0.221165 0.100672
-1.03669 0.453808 0.0344489 -0.982379 0.171979 0.0731809
-0.094213 0.0567926 0.401101 0.112549 -0.966221 -0.231842
0.158901 0.118832 0.261947 0.0285522 0.975279 -0.219124
-0.0789193 0.0629073 0.394333 0.0901899 -0.974634 -0.204826
-0.0629742 0.0691672 0.388276 0.0839892 -0.985467 -0.147652
-0.0174508 0.0849439 0.366154 0.107285 -0.991292 -0.0763522
-0.0327293 0.0794352 0.373117 0.102382 -0.987054 -0.123464
-0.0480916 0.0738665 0.380123 0.0938481 -0.989041 -0.113976
-0.856445 -0.185743 -0.527101 0.830152 0.556889 -0.0268802
-0.84931 -0.18164 -0.536973 0.852889 0.517815 0.0666923
0.118987 0.130928 0.237727 0.0972091 -0.965871 0.240091
0.141254 0.128141 0.238547 0.0522359 -0.959948 0.275266
0.251078 0.722668 0.138154 -0.536764 0.740359 0.404665
0.243765 0.719735 0.159846 -0.997638 -0.0353738 -0.058889
0.239432 0.703542 0.149329 0.840505 -0.506202 -0.193161
0.105834 0.12947 0.249194 0.094289 -0.977002 0.191251
0.0930977 0.127674 0.261435 0.0986828 -0.986336 0.13192
0.10221 0.123713 0.273752 0.0759821 -0.990131 0.11776
-0.546741 0.681193 -0.0755255 0.559183 0.815688 0.148212
-0.560736 0.67813 -0.0652018 0.469411 0.873989 0.125688
-0.554714 0.668094 -0.0598257 0.466912 0.884128 0.0176202
-0.266216 0.0656589 0.247529 -0.313526 0.873803 0.371711
-0.693997 -0.586441 -0.167541 -0.635327 -0.566158 0.52519
-0.688657 -0.605223 -0.171012 0.821384 0.227194 -0.523174
-0.692205 -0.594415 -0.150284 0.690544 0.377292 -0.61709
-0.209283 0.781021 0.207696 -0.216536 0.78278 0.58341
-0.217871 0.76918 0.211848 -0.19214 0.701792 0.685981
-0.200795 0.775632 0.218752 0.148492 -0.738274 -0.657952
0.168267 -0.229355 0.605207 -0.532536 -0.55638 -0.637845
0.173589 -0.21576 0.602992 0.58629 0.589421 0.55574
0.156525 -0.209789 0.605896 0.567017 0.559314 0.604698
-0.246488 0.0788818 0.249172 -0.384074 0.862581 0.329304
-0.988989 0.317997 -0.258907 -0.993164 -0.082796 -0.0822774
-0.98817 0.333723 -0.251705 -0.989341 0.0197221 -0.144278
-0.979234 0.337141 -0.260351 -0.981737 0.0580726 -0.181163
-0.395657 0.956482 -0.259643 0.188552 0.904296 0.38301
-0.542423 0.248089 0.163255 -0.815936 -0.476245 -0.327777
-0.524785 0.236364 0.152991 -0.820364 -0.475523 -0.317618
-0.841414 0.637323 0.0528526 -0.253712 0.964061 0.0788508
0.092475 -0.0290465 0.51942 0.298269 0.907383 0.296127
0.0858823 -0.0198704 0.513097 0.2926 0.909224 0.296138
0.0767661 -0.0342047 0.526662 -0.289421 -0.908255 -0.302172
0.302079 0.0205591 0.345508 0.433923 0.884878 -0.169417
0.101453 -0.0139959 0.506579 -0.294188 -0.919578 -0.260442
0.151359 -0.0101774 0.487874 0.37129 0.916164 0.150956
0.144773 -0.00120826 0.481334 0.343993 0.92863 0.138978
0.136829 -0.0145103 0.496187 0.351919 0.914963 0.197474
0.0707054 -0.0253121 0.520297 -0.267131 -0.91377 -0.306049
-0.257474 0.758877 0.191335 0.270398 -0.766273 -0.582847
-0.229607 0.767136 0.204816 -0.246206 0.755573 0.607036
-0.864693 0.444324 0.273264 0.14165 0.701596 0.698354
-0.861688 0.434205 0.277585 0.225025 0.632279 0.741341
-0.848419 0.432005 0.280088 -0.37671 -0.556908 -0.740232
-0.994611 0.209269 -0.232633 0.669526 0.688228 -0.279424
-0.988132 0.216831 -0.252479 0.752261 0.61897 -0.225786
-0.983657 0.204435 -0.2459 -0.621824 -0.73491 0.270633
-0.141257 -0.0215816 0.462842 0.127636 -0.790417 -0.599125
-0.149552 -0.0154014 0.453041 -0.168113 0.793219 0.58527
-0.161755 -0.0353001 0.460538 -0.113389 0.803089 0.584971
-0.983953 0.39005 -0.207527 -0.966635 0.236049 -0.0994891
-0.979242 0.404578 -0.197806 -0.952309 0.285627 -0.107351
-0.975356 0.393675 -0.216482 -0.961191 0.243233 -0.130189
-0.987935 0.301602 -0.265178 -0.987089 -0.152369 -0.0493776
-0.995489 0.297476 -0.255658 -0.985024 -0.170639 -0.0247046
-0.273313 0.514001 0.02749 0.329061 -0.874088 -0.357337
-0.271748 0.508517 0.0394649 -0.367377 0.902201 0.225982
-0.00582681 -0.00671438 -0.356767 -0.180254 0.116741 -0.976668
-0.405698 0.425994 -0.0696538 0.688612 0.253162 -0.679501
-0.398953 0.405426 -0.064614 0.767335 0.333716 -0.547568
-0.400544 0.412336 -0.0809251 0.649019 0.383858 -0.656832
-0.017608 -0.0197557 -0.370895 -0.228689 0.158512 -0.960508
-0.0306861 -0.0175152 -0.374084 -0.242009 0.168145 -0.955594
0.0243383 0.0755455 0.393362 -0.0598662 0.990025 0.127539
0.0151412 0.0799733 0.381264 0.0875813 -0.99236 -0.0868939
0.000437524 0.0750745 0.38916 0.0877046 -0.986642 -0.137282
0.0091481 0.0700753 0.400301 -0.0697812 0.986265 0.149708
-0.17421 0.0226511 0.398704 -0.249346 0.850893 0.462393
-0.128355 0.040301 0.408889 -0.190363 0.913467 0.359638
-0.110634 0.0492848 0.405941 0.159129 -0.944206 -0.288362
0.0267091 0.0986076 0.341946 -0.0933364 0.995622 0.00494699
0.0120026 0.0941184 0.350032 0.105828 -0.993286 -0.0467366
0.0510144 0.118539 0.290291 0.111375 -0.990063 0.0858479
0.0377998 0.11575 0.301227 0.115692 -0.992012 0.0502757
0.0606677 0.11442 0.303342 0.0919552 -0.993099 0.0727978
0.0322714 0.1072 0.321621 -0.0918645 0.995768 -0.00251567
0.0231021 0.111628 0.309518 0.111165 -0.993748 0.01034
0.0464936 0.11094 0.31253 -0.103644 0.994172 -0.0296649
-0.0353386 0.0942128 0.342848 0.135449 -0.989697 -0.0464011
-0.0408697 0.0851365 0.362973 0.110472 -0.989113 -0.0972209
-0.0501039 0.0895419 0.350903 0.134361 -0.988306 -0.0720997
0.110822 0.118694 0.284903 0.0547016 -0.993172 0.103036
0.562974 -0.64972 0.22906 -0.978191 0.0392132 0.20397
0.557958 -0.654516 0.240313 -0.980822 0.0313217 0.192373
0.556152 -0.670464 0.231918 -0.971844 -0.000224871 0.235626
-0.404755 0.425847 -0.0604876 0.692991 0.240091 -0.679793
-0.402729 0.418729 -0.0452773 -0.780412 -0.17767 0.599492
-0.384437 0.7708 -0.184604 0.832785 0.454808 0.315625
-0.635722 0.560333 0.196112 0.223705 0.967993 0.113777
-0.650141 0.556438 0.20532 -0.194836 -0.966902 -0.164738
-0.642935 0.548459 0.212967 -0.221105 -0.963209 -0.152778
0.024033 0.901918 0.25062 -0.0543569 0.9221 0.383114
0.0286943 0.880552 0.259295 0.605858 0.245036 0.756897
0.0345068 0.901598 0.259398 0.0487273 0.755567 0.653257
-0.209769 0.172276 0.0465632 0.17917 0.9775 -0.111316
-0.223194 0.170467 0.0582158 0.216971 0.972547 -0.084118
-0.201587 0.166412 0.0566011 0.0447075 0.991939 -0.118566
-0.896012 0.0487219 -0.439702 -0.987907 0.00441289 -0.154982
-0.182974 0.0278045 0.387643 0.255555 -0.866516 -0.428768
-0.110711 0.0295372 0.430582 -0.102282 0.902663 0.418017
-0.12878 0.0193181 0.432269 -0.134872 0.872583 0.469476
-0.120594 0.0132329 0.442188 -0.124122 0.876468 0.465186
-0.904603 0.0451005 -0.430755 -0.990274 -0.0204694 -0.13762
-0.0691232 0.0394049 0.431977 -0.071965 0.958345 0.276399
-0.0778013 0.0445896 0.420954 -0.0576047 0.963827 0.260231
-0.0860516 0.0311422 0.435805 -0.0540078 0.93849 0.341058
-0.0937193 0.0380309 0.426889 0.0644346 -0.941162 -0.331756
-0.103021 0.0226482 0.439542 -0.084687 0.903881 0.419318
-0.00271803 0.0895002 0.358064 0.108575 -0.992663 -0.0532101
-0.22121 0.00475188 0.387818 0.294091 -0.833714 -0.467367
0.251487 0.723899 0.150455 -0.957485 0.190656 0.216502
0.255538 0.72944 0.138855 0.872916 -0.425652 -0.23841
-0.517513 0.51473 0.163176 0.828196 0.535013 0.16689
-0.228101 0.0888005 0.247302 0.362138 -0.896233 -0.256167
-0.211009 0.0972841 0.243455 0.342327 -0.912674 -0.223247
-0.399615 0.67594 0.140721 -0.252314 0.664896 0.70303
-0.412985 0.652381 0.14381 0.118403 -0.739447 -0.662721
-0.193339 0.106571 0.240693 0.327051 -0.929158 -0.172346
-0.0244932 -0.0863361 0.546982 0.0812096 0.779181 0.621516
-0.031071 -0.0774052 0.540404 0.0515292 0.78939 0.611726
-0.0434813 -0.0983954 0.546532 0.0258539 0.696075 0.717503
-0.825509 0.604607 0.127142 0.156492 -0.971139 -0.179999
-0.816643 0.599477 0.138025 0.126073 -0.973882 -0.188838
0.0554551 -0.0310747 0.526999 -0.203739 -0.896849 -0.392622
0.0620893 -0.0400862 0.533597 -0.21798 -0.891968 -0.396078
-0.291747 0.120578 0.164961 -0.130859 -0.972916 -0.190554
-0.29936 0.127988 0.156431 -0.218508 -0.964074 -0.151048
-0.307353 0.114809 0.172094 -0.201218 -0.938373 -0.281013
0.0388006 -0.0392916 0.530946 -0.153511 -0.859279 -0.487928
0.0453856 -0.0479578 0.537895 -0.175422 -0.849732 -0.497175
0.0115235 -0.0659026 0.543727 0.256989 0.770145 0.58381
0.0042818 -0.0577915 0.536362 0.0710434 0.820158 0.567709
-0.00646337 -0.076109 0.545468 0.112627 0.799265 0.590331
-0.013719 -0.067978 0.537995 0.0737563 0.821197 0.565858
-0.0500014 -0.0896639 0.539554 0.00878263 0.714825 0.699249
-0.926966 -0.0404535 -0.450084 -0.992224 -0.11678 -0.0430462
-0.922258 0.607076 0.0554016 0.399086 -0.8769 -0.267912
-0.539607 0.454232 0.173277 -0.967832 0.0481354 -0.24695
-0.52978 0.475755 0.172933 -0.967817 -0.155999 -0.197472
-0.539562 0.472399 0.181341 -0.968098 -0.160929 -0.192063
-0.953856 0.0664499 -0.204847 -0.843513 0.315413 0.434743
-0.96234 0.0506836 -0.210566 -0.820486 0.359086 0.444815
-0.963037 0.0453732 -0.198492 0.792975 -0.334606 -0.509146
-0.695995 -0.699948 -0.767124 -0.710839 -0.648915 -0.271326
-0.687872 -0.678069 -0.761445 0.774241 -0.115992 0.622171
0.0633213 0.664993 0.113642 0.0912873 0.637781 0.764789
0.0631348 0.671993 0.111591 -0.126619 -0.601084 -0.789091
0.217685 -0.283277 0.612066 0.612481 0.601762 0.512592
0.221757 -0.296748 0.613297 -0.65337 -0.537541 -0.533064
0.229195 -0.293137 0.610454 0.664032 0.546149 0.51067
-0.512001 0.543973 0.149804 0.719423 0.645387 0.256724
-0.525749 0.541199 0.160254 0.649642 0.745903 0.146951
-0.521328 0.52843 0.162263 0.782231 0.603685 0.153879
0.587816 -0.837161 0.410452 -0.702662 -0.672992 -0.230971
0.59617 -0.84268 0.407523 -0.769133 -0.597167 -0.227654
0.60208 -0.833615 0.40054 0.702858 0.697692 0.138625
-0.631735 0.702197 -0.0963791 -0.33475 0.908568 0.249892
-0.647189 0.694005 -0.0907925 -0.309037 0.947908 0.0772415
-0.192484 0.162075 0.0687079 0.0759177 -0.989853 0.120118
-0.179051 0.163949 0.0571025 0.088552 -0.980325 0.176415
-0.015295 0.0688607 0.395092 -0.091909 0.98172 0.166669
-0.0301359 0.0640562 0.403112 -0.0542145 0.985837 0.158703
-0.0225198 0.0574616 0.412211 0.0763604 -0.982954 -0.167242
-0.594763 0.720239 -0.101794 0.0692495 -0.938226 -0.339024
-0.613802 0.712776 -0.0976411 -0.230671 0.924419 0.303709
-0.603816 0.707115 -0.0860952 -0.0936569 0.943398 0.318164
-0.00666079 0.0638385 0.406246 -0.0676182 0.98233 0.174518
-0.0460377 0.0579726 0.409305 -0.0635335 0.98125 0.181965
-0.0378922 0.0519043 0.41924 -0.0499979 0.978092 0.20208
-0.0619085 0.0511413 0.415037 -0.0695034 0.971681 0.225843
-0.0532059 0.0459967 0.426043 0.0671051 -0.968852 -0.238374
0.0408984 0.10236 0.332835 -0.0996274 0.995007 -0.00597621
0.0555906 0.106714 0.324733 -0.0835196 0.996458 -0.00978015
0.0698065 0.110074 0.315485 0.0838107 -0.994464 0.0633836
0.0834677 0.112928 0.30527 -0.0807553 0.993964 -0.0742571
0.0971594 0.115983 0.295166 0.0770729 -0.993777 0.080424
-0.45101 0.781209 -0.152736 0.66741 0.636775 0.38611
0.54974 -0.381642 0.335255 -0.946739 -0.276974 0.164229
0.555424 -0.377086 0.324676 -0.93493 -0.2888 0.206154
0.546251 -0.363687 0.340191 -0.928762 -0.330309 0.168219
0.551408 -0.359272 0.329289 0.907347 0.347486 -0.236593
0.546257 -0.340987 0.333228 0.871997 0.411611 -0.264949
0.541766 -0.345913 0.344607 0.89321 0.401261 -0.202894
-0.424669 -0.935961 -0.271116 0.641721 -0.720903 0.261712
-0.451468 -0.949786 -0.281447 0.475073 -0.86046 0.184157
-0.432237 -0.945245 -0.293421 0.473047 -0.856778 0.205325
0.503675 -0.372651 0.406217 0.918141 0.394892 -0.0328284
0.498107 -0.354422 0.409964 0.901405 0.432628 -0.0173668
0.490957 -0.358581 0.419746 -0.902953 -0.429712 -0.0048275
0.430733 -0.885601 0.440938 0.053584 0.633349 0.772009
0.444719 -0.874345 0.441865 0.0999565 0.688848 0.717981
0.420125 -0.881784 0.434543 -0.0251915 0.669123 0.742725
-0.176797 0.114323 0.235838 0.286308 -0.952581 -0.103043
-0.355796 0.0949953 0.190644 -0.288149 -0.837167 -0.464889
-0.362427 0.103987 0.184133 -0.267794 -0.850916 -0.451917
-0.37246 0.0873491 0.195666 -0.321679 -0.836888 -0.442879
-0.756008 0.657683 0.0244369 0.147022 -0.987574 0.0555153
-0.765953 0.661281 0.011378 -0.186604 0.979197 -0.0796981
-0.770533 0.65393 0.0338253 0.140041 -0.990054 0.0134509
-0.785664 0.649477 0.0422169 0.136842 -0.990575 -0.00596066
-0.529197 0.650118 -0.0602472 -0.441332 -0.873699 0.204638
-0.518526 0.643186 -0.0638256 -0.518204 -0.811162 0.271074
-0.517038 0.650048 -0.0742744 0.585769 0.805361 -0.0909338
-0.836551 -0.273968 -0.516033 0.832822 0.552561 0.0329369
-0.844304 -0.278239 -0.506737 0.839163 0.543382 0.0232708
-0.843437 -0.255004 -0.513087 -0.915976 -0.401101 -0.0102692
-0.201016 0.0173445 0.38918 0.251745 -0.856016 -0.45151
-0.35866 0.958802 -0.266742 0.426804 0.849246 0.310838
-0.854941 -0.21757 -0.505697 0.779309 0.617333 -0.107597
-0.525906 -0.964834 -0.212603 -0.612698 0.775429 -0.152678
-0.525332 -0.965531 -0.233966 -0.346732 0.930842 -0.115368
-0.860941 -0.144462 -0.529748 -0.953296 -0.244788 -0.176935
-0.869505 -0.148047 -0.520764 -0.955788 -0.280925 -0.0868962
-0.861585 -0.12826 -0.523505 -0.979478 -0.121781 -0.160598
-0.996481 0.313929 -0.249354 -0.991264 -0.115732 -0.063254
-0.996753 0.330001 -0.242689 -0.994872 -0.0235446 -0.0983674
-0.141875 -0.1237 0.520115 0.0944936 0.666361 0.739617
-0.129663 -0.126348 0.52429 0.152404 0.674709 0.722178
-0.123922 -0.112483 0.520428 0.140413 0.700822 0.699381
-0.329431 -0.378116 0.45229 0.17891 -0.908876 -0.376744
-0.326351 -0.372823 0.445424 0.190847 -0.924143 -0.330964
-0.338728 -0.374323 0.44 0.218249 -0.920151 -0.325098
-0.137894 0.0034273 0.444406 -0.15519 0.838964 0.521589
-0.146743 0.00876413 0.433598 -0.179325 0.833386 0.52279
-0.158437 -0.0100534 0.442238 -0.191979 0.802547 0.564857
-0.866024 -0.847967 -0.195226 0.361581 -0.485949 -0.795684
-0.869127 -0.829245 -0.211317 -0.438543 0.440545 0.783326
-0.874671 -0.850428 -0.206103 -0.474399 0.456834 0.752495
-0.166503 -0.0042229 0.432047 -0.194086 0.80675 0.558109
-0.684934 0.47917 0.286142 0.596742 0.593444 0.540114
-0.68146 0.465523 0.285962 0.690605 0.509635 0.513164
-0.665267 0.472096 0.280372 -0.749677 -0.474353 -0.46149
-0.568303 0.666097 -0.0487481 0.340438 0.940166 -0.013761
-0.548096 0.659126 -0.0531547 0.393108 0.911235 -0.122953
-0.496443 0.765358 -0.130565 0.530406 0.737259 0.418472
-0.638716 0.495233 0.263884 0.546062 0.786449 0.288641
-0.634369 0.48245 0.265885 0.758793 0.518275 0.394492
-0.369458 0.796271 -0.196426 0.809624 0.493993 0.316985
-0.240792 0.0112007 0.361474 0.393591 -0.820142 -0.415276
-0.221561 0.0234799 0.362057 -0.567918 0.732461 0.37546
-0.161298 0.119882 0.228718 0.263164 -0.962913 -0.0595308
-0.146369 0.124745 0.220565 0.257202 -0.96631 -0.00958631
-0.0312534 0.0139109 -0.354703 -0.238389 0.0844024 -0.967495
-0.38923 0.080157 0.201282 -0.343563 -0.82626 -0.446385
-0.383131 0.0702973 0.206674 0.343753 0.818527 0.460269
-0.20258 0.147736 0.113058 0.162689 -0.985068 0.0563227
-0.216457 0.144429 0.123364 0.154372 -0.987834 0.0187934
-0.207361 0.140623 0.135617 0.214557 -0.976214 0.0311804
-0.873893 -0.0512913 -0.516484 -0.967939 -0.247298 -0.0440242
-0.870238 -0.0687053 -0.521273 -0.906263 -0.42251 0.0131848
-0.527923 0.25104 0.153367 -0.815998 -0.505452 -0.280474
-0.48605 0.259499 0.121227 0.839629 0.522643 0.147879
-0.48973 0.273234 0.120497 0.831683 0.53353 0.153781
-0.499702 0.257574 0.132739 -0.823756 -0.530797 -0.199199
0.130285 -0.00542718 0.489727 -0.311831 -0.930477 -0.192288
0.0287595 -0.0566074 0.541147 -0.149256 -0.826244 -0.543178
0.0222128 -0.0477286 0.53465 0.108359 0.833089 0.542421
-0.0639517 -0.0977311 0.536226 -0.0252785 0.620906 0.783477
-0.0724655 -0.118052 0.538315 -0.0202312 0.593013 0.804939
-0.0541197 -0.102178 0.54334 -0.0403675 0.62712 0.777876
-0.853543 -0.108539 -0.526102 0.895393 0.436087 0.0899971
-0.862113 -0.0885997 -0.523852 0.854119 0.517818 -0.0484202
-0.568148 -0.561509 -0.471309 -0.854158 -0.0993244 0.51044
-0.569935 -0.543806 -0.465681 0.783768 0.553235 -0.282202
-0.565325 -0.555528 -0.483322 -0.911344 -0.111036 0.396389
-0.401498 0.0996391 0.189735 -0.254398 -0.869997 -0.422359
-0.408126 0.108563 0.183156 -0.217277 -0.878051 -0.426401
-0.418269 0.0921238 0.194892 -0.201516 -0.861475 -0.466103
-0.452479 0.737645 -0.139106 0.72596 0.573819 0.379095
-0.467735 0.732067 -0.131958 0.704197 0.597751 0.383144
-0.179599 -0.0460667 0.4616 0.106462 -0.833912 -0.541531
-0.200665 -0.0493674 0.453904 0.165426 -0.732614 -0.660235
-0.191087 -0.0535181 0.461499 0.136864 -0.725128 -0.674876
-0.0291407 -0.0324864 -0.385377 0.222599 -0.241358 0.944561
-0.126386 -0.0366134 0.479332 -0.0413579 0.767475 0.639744
-0.133563 -0.0286359 0.471614 -0.0732056 0.777063 0.625151
-0.14623 -0.0494833 0.478034 0.00444283 0.781565 0.623808
-0.153349 -0.0416214 0.47011 -0.0582235 0.788541 0.61222
-0.171993 -0.0529381 0.470651 -0.0701919 0.824328 0.561743
-0.164264 -0.0599795 0.479414 -0.0375303 0.818655 0.573058
-0.106388 -0.0241336 0.48022 0.00120588 0.81375 0.581213
-0.114299 -0.0166831 0.471947 -0.0288616 0.817309 0.575476
-0.0896957 -0.0151019 0.477249 0.0247844 0.854343 0.519118
-0.0967041 -0.00746022 0.470888 0.0147472 0.860358 0.509478
-0.0716312 -0.00490353 0.475537 0.0159914 0.851862 0.523523
-0.0793898 0.00234281 0.466906 0.000926608 0.871399 0.490575
-0.618153 0.698713 -0.0801188 0.177618 -0.943372 -0.280182
-0.676839 0.686264 -0.0730307 0.254226 -0.960248 0.115298
-0.690782 0.682996 -0.0626115 0.243696 -0.961812 0.124616
0.13708 0.103673 0.319205 0.0167539 0.995001 -0.0984504
-0.569951 0.720399 -0.0955882 -0.192949 -0.891157 -0.410621
-0.577776 0.729967 -0.103738 0.00518809 0.896357 0.443303
-0.586338 0.715024 -0.0908552 0.0524875 0.935302 0.349937
0.128067 0.108627 0.307235 0.00139804 -0.994838 0.101462
0.150234 0.105602 0.307916 0.0394267 0.989573 -0.138534
0.141676 0.111066 0.29692 -0.0108369 -0.990308 0.138463
0.162962 0.106971 0.295616 0.062873 0.980668 -0.185302
-0.411026 -0.938588 -0.305122 0.482264 -0.859017 0.171789
-0.427799 -0.941867 -0.314271 0.240952 -0.969115 0.0525251
0.154776 0.112431 0.285426 0.0471166 0.981536 -0.185384
-0.890545 0.103643 -0.395236 -0.950562 0.278376 -0.137615
-0.884659 0.117344 -0.38494 -0.926851 0.338959 -0.161411
-0.881918 0.107091 -0.40406 -0.935302 0.2922 -0.199575
-0.507588 0.53116 0.151697 0.764988 0.590879 0.256233
-0.493236 0.534923 0.142196 0.677496 0.586719 0.443578
-0.497219 0.548508 0.141108 0.682384 0.583696 0.440057
-0.507154 0.747107 -0.121233 0.569923 0.714718 0.405421
-0.55263 0.537327 0.182804 0.615782 0.786342 0.0497868
-0.565818 0.53558 0.194503 0.55887 0.827673 0.0512051
-0.560955 0.523678 0.197577 -0.71652 -0.693104 -0.0787771
-0.560641 0.738254 -0.107692 -0.156213 -0.865735 -0.4755
-0.737833 -0.344319 -0.554615 0.6505 0.741582 0.164031
-0.747574 -0.344934 -0.54819 0.666039 0.73491 0.127668
-0.738008 -0.329963 -0.562557 0.701708 0.683748 0.200234
-0.539053 0.539367 0.171709 0.63806 0.764983 0.0876383
-0.534575 0.526615 0.173836 -0.745991 -0.658345 -0.100394
0.560342 -0.605889 0.263074 -0.967379 -0.121873 0.222093
0.565596 -0.601323 0.252283 -0.951214 -0.162846 0.262057
0.558887 -0.588989 0.269278 -0.959746 -0.146747 0.239486
-0.0368471 -0.676893 0.578815 -0.317658 -0.32511 -0.890728
-0.0559248 -0.668966 0.573289 0.248145 0.333694 0.909435
-0.0505816 -0.692295 0.57281 -0.320619 -0.266852 -0.908842
-0.157128 0.572497 0.0488419 -0.187484 0.794858 0.577106
-0.139738 0.584659 0.0494209 -0.141113 0.766844 0.626129
-0.151569 0.565479 0.0582774 -0.254026 0.8312 0.494547
-0.102309 0.138035 0.195074 0.245777 -0.968053 0.0496677
-0.117216 0.133658 0.203257 -0.251445 0.966891 -0.0435666
-0.131507 0.129507 0.212423 0.245991 -0.96859 0.036366
-0.656554 0.679584 -0.0457571 0.113039 -0.992197 0.0525976
-0.822467 -0.7788 -0.211479 -0.195228 0.878934 0.435156
-0.828603 -0.773505 -0.220837 0.259489 -0.879629 -0.398645
-0.0907694 0.623637 0.053081 -0.000397733 0.644204 0.764853
-0.0766913 0.635306 0.0555538 0.00938632 0.634178 0.77313
-0.0845061 0.614662 0.0616529 -0.102903 0.715877 0.690602
0.271671 0.807834 0.118259 -0.225923 -0.368699 -0.901676
0.269702 0.824634 0.118476 0.245916 0.339536 0.907877
0.28348 0.822127 0.124297 -0.301386 0.289194 0.908589
-0.900281 0.603075 0.0846712 -0.347883 0.901633 0.256972
-0.910752 0.605268 0.0704489 -0.376029 0.891871 0.251332
-0.899843 0.490841 -0.185994 -0.937748 0.281654 -0.203224
-0.889242 0.493889 -0.193815 0.902035 -0.384348 0.196491
-0.373424 0.953882 -0.259045 -0.360052 -0.865449 -0.348368
-1.0156 0.245429 -0.224974 -0.880324 -0.443326 0.168794
-1.00979 0.250016 -0.235612 0.895188 0.422892 -0.140715
-1.00303 0.231792 -0.238436 0.812558 0.54413 -0.208977
-0.792741 0.580682 -0.186305 0.855696 -0.240993 0.457938
-0.779505 0.582999 -0.192691 0.839491 -0.30099 0.452394
-0.789539 0.570435 -0.205686 0.820889 -0.490288 0.292847
-0.811251 -0.263299 -0.543463 0.735982 0.665782 0.122739
-0.814279 -0.238472 -0.55211 0.814499 0.567826 0.119015
-0.800404 0.567449 -0.197956 0.849033 -0.423175 0.316332
-0.840522 0.490939 -0.277393 0.875974 -0.298013 0.379285
-0.833335 0.504504 -0.266153 0.811691 -0.457966 0.362526
-0.828463 0.493367 -0.284231 0.810469 -0.305488 0.499817
0.175632 0.107951 0.283183 0.0637485 0.977212 -0.202466
0.420979 -0.191424 -0.112018 -0.0948774 -0.443999 0.89099
0.427156 -0.199906 -0.126297 0.297883 0.675443 -0.674568
0.418254 -0.192609 -0.133633 0.273049 0.735951 -0.619532
-0.981964 -0.222268 -0.314507 -0.903721 -0.311848 0.293326
-0.987368 -0.212698 -0.30079 -0.902328 -0.219989 0.370688
-0.985014 -0.204986 -0.30928 -0.923177 -0.209838 0.322045
0.167463 0.113727 0.27305 0.0452864 0.976383 -0.211247
-0.554015 0.729027 -0.101498 0.35238 0.823443 0.444714
-0.799278 0.557481 -0.218284 0.861822 -0.442037 0.248729
-0.466196 0.775806 -0.145314 -0.637097 -0.671054 -0.379201
-0.481124 0.770886 -0.137687 0.588506 0.706943 0.39229
-0.61515 0.514492 0.241555 0.467249 0.870421 0.155069
-0.62156 0.523814 0.23534 0.404397 0.898286 0.171887
-0.629723 0.510582 0.250562 0.411882 0.887192 0.207953
-0.697207 0.499206 0.275427 -0.255505 -0.889543 -0.378721
-0.713911 0.491639 0.28036 -0.27194 -0.841567 -0.466704
-0.707729 0.481662 0.285869 -0.301772 -0.793774 -0.528068
-0.157492 0.0694439 0.344215 0.275538 -0.934022 -0.227334
-0.174531 0.061052 0.348049 0.293939 -0.902525 -0.31472
-0.165272 0.0568244 0.360162 -0.266961 0.906256 0.327768
-0.147823 0.0665427 0.357621 0.264269 -0.935492 -0.234555
-0.0874096 0.142228 0.186793 0.244265 -0.96751 0.0652594
0.390589 -0.342018 0.521855 0.868573 0.477199 0.133645
0.382903 -0.330253 0.525773 0.843262 0.522142 0.127582
0.381669 -0.345925 0.530406 -0.865637 -0.481786 -0.136216
-0.427349 0.759705 -0.157352 -0.729632 -0.607233 -0.314491
-0.000477893 0.57645 0.148143 -0.280922 0.907135 0.313353
-0.00438145 0.582447 0.137297 -0.252321 0.888764 0.382666
0.0199241 0.586764 0.146091 -0.183609 0.887448 0.422758
-0.183077 0.175079 0.0230765 -0.0160128 -0.968588 0.248157
-0.640084 -0.967846 -0.221601 -0.019756 -0.999579 0.0212544
-0.64963 -0.963581 -0.230102 -0.0209111 -0.999775 0.00343245
-0.630335 -0.958443 -0.241662 -0.0322457 -0.99948 0.000506629
0.431689 -0.762529 0.389042 -0.960443 -0.00861062 -0.278343
0.42604 -0.78386 0.382481 -0.907777 -0.118962 -0.402231
0.440758 -0.760136 0.381112 -0.959796 -0.0684039 -0.272237
-0.423338 -0.3197 0.350019 -0.148283 -0.213604 -0.965601
-0.434042 -0.315938 0.343979 0.049984 0.186202 0.981239
-0.435499 -0.332294 0.336674 -0.042272 -0.239272 -0.970032
-0.852426 0.488457 -0.270397 -0.907184 0.295113 -0.299876
-0.845063 0.476292 -0.286959 -0.9101 0.104062 -0.40111
-1.10078 0.159837 0.172095 0.388559 0.456775 -0.800237
-1.10599 0.175267 0.180204 -0.455259 -0.254334 0.853261
-1.10586 0.165044 0.160749 -0.472857 -0.447023 0.759326
-0.538515 0.734984 -0.108153 -0.400489 -0.810287 -0.427836
-1.08611 0.14274 0.163908 0.30947 0.526304 -0.79198
-1.09282 0.154893 0.182515 -0.237182 -0.450793 0.860541
-1.09576 0.169187 0.196319 -0.268047 -0.277027 0.922717
-1.10363 0.174446 0.186406 -0.433161 -0.232094 0.870921
-1.10382 0.190072 0.196527 0.438088 0.0929334 -0.894115
-1.09669 0.184468 0.20753 0.328939 0.100193 -0.939021
-1.10293 0.206014 0.205293 0.446617 -0.0615494 -0.892606
-1.108 0.207265 0.19565 0.503796 -0.0543085 -0.862114
-1.0951 0.241369 0.213741 -0.436087 0.333909 0.835663
-1.09644 0.260826 0.204334 0.512461 -0.386116 -0.767005
-1.09889 0.239267 0.208968 -0.46801 0.307772 0.828398
-1.09975 0.223247 0.210569 0.445355 -0.218965 -0.868167
-1.08799 0.235736 0.224556 -0.344331 0.33903 0.875497
-1.08169 0.271527 0.220985 0.432613 -0.436563 -0.788834
-1.08941 0.259954 0.215606 -0.453768 0.393763 0.799403
-1.08225 0.255046 0.225928 -0.367683 0.394163 0.842286
-1.07599 0.273456 0.227339 -0.373582 0.445924 0.813381
-1.06131 0.288086 0.237096 -0.253819 0.505734 0.824505
-1.07171 0.28749 0.226431 -0.372854 0.496153 0.784099
-0.0368207 0.0337688 0.445906 0.0629579 -0.959679 -0.273957
-0.0526837 0.0272025 0.451825 0.0605845 -0.945545 -0.319802
-0.0449861 0.0201931 0.460619 -0.035974 0.932891 0.358357
-0.0286298 0.0277841 0.455938 -0.0337854 0.956433 0.289991
-0.0696789 0.0188898 0.455674 -0.0355945 0.915935 0.399746
-0.0620022 0.0119296 0.464553 -0.0291382 0.891783 0.451523
-0.0872153 0.00957449 0.458338 -0.0214755 0.889483 0.456463
-0.104383 0.00109171 0.461414 0.0344251 -0.870501 -0.490961
-0.869881 -0.131887 -0.514219 -0.988917 -0.0956776 -0.113532
-0.0678869 0.687419 0.0522357 -0.125571 -0.386267 -0.9138
-0.0623779 0.707292 0.0548439 0.172632 0.348759 0.921176
-0.0564506 0.684282 0.0572972 0.136852 0.39898 0.90669
-0.817849 -0.761477 -0.405416 0.827299 -0.465174 0.314945
-0.806029 -0.750475 -0.39184 0.6687 -0.658919 0.344479
-0.806479 -0.759345 -0.412992 0.779262 -0.520236 0.349436
-0.907016 0.477063 -0.197488 0.895755 -0.433333 0.0992286
-0.898597 0.480838 -0.206565 0.881849 -0.462333 0.0926885
-0.811129 0.564253 -0.189975 0.872863 -0.33714 0.352771
-0.941652 0.225355 -0.313649 0.732485 0.678835 0.0514734
-0.950532 0.244343 -0.312308 -0.862234 -0.498967 -0.0870923
-0.942052 0.24801 -0.321266 -0.860372 -0.491542 -0.134711
-0.903892 0.0287358 -0.437085 -0.983764 -0.156374 -0.0880669
-0.427639 0.131456 -0.511913 0.422191 -0.184087 0.887618
-0.429344 0.14625 -0.500049 0.458604 -0.352923 0.815554
-0.41587 0.144792 -0.497772 0.373356 -0.32641 0.868368
-0.895602 0.158389 -0.307938 -0.945319 -0.321748 -0.0533878
-0.888632 0.162426 -0.318041 -0.955969 -0.29078 0.0396206
-0.967939 0.297833 0.276337 -0.345739 -0.419791 -0.83919
-0.963958 0.321985 0.276308 0.250642 0.477428 0.842164
-0.982936 0.305563 0.272569 -0.239414 -0.474485 -0.84708
0.60481 -0.443946 0.0083711 0.553279 0.0848681 -0.828661
0.609873 -0.463369 0.0234052 0.68504 0.0156294 -0.728338
0.605852 -0.454489 0.0062448 0.626573 0.0300863 -0.778782
0.562766 -0.58402 0.257644 -0.953222 -0.142488 0.26658
0.562263 -0.56761 0.264839 -0.972638 0.0267425 0.230781
0.558072 -0.572369 0.276038 -0.971556 -0.0256559 0.235417
0.557826 -0.394045 0.318828 -0.945203 -0.249702 0.210335
0.552561 -0.399068 0.329874 -0.942034 -0.27254 0.195688
-1.00756 0.226128 -0.22679 0.793131 0.569268 -0.216513
-0.600665 -0.678788 -0.360198 -0.943776 0.0589972 -0.325279
-0.612794 -0.680654 -0.353129 -0.923486 0.0751966 -0.376191
-0.599395 -0.662687 -0.352363 -0.951242 -0.0100557 -0.308283
-0.823905 0.587716 0.155091 -0.10424 0.961154 0.255573
-0.841425 0.579927 0.159542 -0.109267 0.940506 0.321728
-0.832264 0.574092 0.169956 -0.11286 0.944808 0.307573
0.409796 -0.878247 0.42772 0.139597 -0.690347 -0.709883
0.421028 -0.857347 0.421371 -0.190723 0.752288 0.630625
0.402132 -0.866214 0.413826 0.213052 -0.708837 -0.672427
-0.26221 -0.00305154 0.358289 -0.343338 0.840879 0.418379
-0.2773 0.14355 0.129792 -0.237896 -0.968029 -0.0795338
-0.262791 0.147183 0.120194 -0.194639 -0.980521 -0.0263549
-0.240109 -0.00796058 0.387072 0.307715 -0.827824 -0.469062
-1.02051 0.263315 -0.221027 -0.933227 -0.335411 0.128788
-1.01444 0.267946 -0.231494 -0.949082 -0.300323 0.0951287
-0.678414 -0.750681 -0.431642 0.50787 -0.769119 0.387975
-0.664803 -0.749497 -0.437949 -0.47641 0.869743 -0.128764
-0.684833 -0.75677 -0.455987 -0.569686 0.821849 0.00469237
-0.313523 -0.464551 0.525221 0.00668145 0.648304 0.761352
-0.305109 -0.456226 0.525447 -0.0137237 0.726573 0.686952
-0.311604 -0.447488 0.518451 0.0210714 0.748289 0.663038
-0.566689 -0.606354 -0.692375 -0.352784 0.813265 -0.462757
-0.534232 -0.602695 -0.667812 -0.440094 0.77682 -0.450409
-0.543887 -0.609201 -0.697359 0.368742 -0.757065 0.539335
-0.122028 -0.00959962 0.463188 0.0805495 -0.833637 -0.546407
-0.581822 0.663844 -0.037451 0.249044 0.967907 -0.0336506
-0.464592 0.568855 0.138302 0.357412 0.407491 0.840361
-0.470565 0.591788 0.1359 0.168604 0.560528 0.81079
-0.48473 0.569808 0.135914 -0.38829 -0.591648 -0.706529
-1.10321 0.252889 -0.0669816 -0.987543 0.14369 -0.0641252
-1.09968 0.267515 -0.058079 -0.981093 0.180224 -0.0705456
-1.09478 0.256621 -0.0760908 -0.987012 0.134414 -0.0879794
-0.808981 0.554155 -0.20995 0.881561 -0.418847 0.217756
-0.512203 0.758992 -0.12427 0.458156 0.778175 0.429578
-0.672093 0.656423 0.0188677 0.0119164 0.996214 -0.08611
-0.663325 0.650816 0.0296694 0.0258312 0.996331 -0.0815961
-0.649904 0.65295 0.0182201 0.028028 0.994027 -0.105475
-0.627659 0.649983 0.0177819 0.0486461 0.992706 -0.11031
-0.641196 0.64715 0.0289459 0.0448416 0.993358 -0.105969
-0.619122 0.643323 0.0282174 0.0643156 0.992142 -0.107324
-0.124485 0.0844699 0.334489 0.251756 -0.952479 -0.171474
-0.141002 0.0769445 0.339357 0.26084 -0.947379 -0.185566
-0.131193 0.0736788 0.352577 -0.248926 0.948125 0.197726
-0.11541 0.0808845 0.346888 0.231972 -0.959014 -0.162731
-1.02325 0.280321 -0.215802 -0.964604 -0.24854 0.0881312
-1.01706 0.284905 -0.226164 -0.970958 -0.231031 0.0621666
-0.0592816 0.148833 0.167225 -0.237767 0.96127 -0.139379
-0.571719 0.584777 0.139966 -0.202169 -0.978494 -0.040954
-0.585934 0.581393 0.149628 -0.177177 -0.983812 -0.0268835
-0.564467 0.577216 0.147869 -0.265709 -0.962591 -0.0530783
-1.02558 0.297274 -0.210341 -0.983759 -0.161482 0.0783701
-1.01856 0.301487 -0.220263 -0.985469 -0.162119 0.0506801
-1.07361 0.146426 0.19774 0.151893 0.38432 -0.910619
-1.07015 0.132584 0.183622 -0.384618 -0.257866 0.886326
-1.0639 0.127176 0.1943 0.422043 0.0931696 -0.901775
-0.212993 -0.519433 -0.521158 0.00885294 0.255927 0.966655
-0.22264 -0.515042 -0.528594 -0.0847648 0.227591 0.97006
-0.208223 -0.500314 -0.517923 -0.0522139 -0.397348 -0.916181
-0.0220139 0.151612 0.159946 -0.233114 0.952208 -0.197379
-0.0321157 0.153295 0.14537 -0.248651 0.943345 -0.219712
-0.430455 0.338703 0.0352297 0.921645 0.362918 -0.137333
-0.424922 0.31917 0.0307577 0.875227 0.459223 -0.151959
-0.418816 0.322984 0.0202936 0.866496 0.484092 -0.121815
-0.378671 0.097211 0.190033 -0.3032 -0.851923 -0.426963
-0.385194 0.106253 0.183677 -0.276056 -0.869813 -0.408923
-0.394829 0.0905855 0.196208 0.298616 0.854636 0.424766
-0.579331 0.493587 0.223665 0.86415 0.490881 0.110817
-0.582827 0.507396 0.223079 0.789287 0.601296 0.124375
-0.903708 0.177522 -0.305927 0.713608 0.700265 0.0198042
-0.896414 0.1817 -0.315633 0.70655 0.70686 0.033689
0.504475 -0.304221 0.385685 0.833191 0.541933 -0.110007
0.506116 -0.288602 0.374242 0.824446 0.538002 -0.175621
0.498889 -0.300341 0.391119 0.828762 0.549266 -0.107053
-0.896049 0.0896245 -0.405158 -0.969956 0.210275 -0.12235
-0.886573 0.0929173 -0.413599 -0.954908 0.234137 -0.182566
-1.07488 0.123744 0.160854 -0.570272 -0.234868 0.787164
-1.07793 0.137767 0.173693 -0.334421 -0.418416 0.844447
-0.0443476 0.0476974 -0.338814 0.300384 -0.318382 0.899112
-0.0568805 0.0498551 -0.342437 -0.309866 0.353946 -0.882443
-0.0479574 0.0609507 -0.324654 0.293043 -0.480252 0.826731
-1.08333 0.150558 0.190183 0.158063 0.437168 -0.885381
-1.0868 0.164545 0.204968 0.134414 0.315077 -0.9395
-1.08804 0.179687 0.216301 -0.172357 -0.110435 0.978824
-1.08692 0.196066 0.224249 -0.172922 0.0804278 0.981646
-1.09562 0.200819 0.215497 -0.34373 0.0730379 0.936224
-0.552058 0.8104 -0.247521 -0.977637 0.146362 0.151013
-0.554812 0.813213 -0.234458 -0.932991 0.287435 0.216583
-0.548213 0.818981 -0.247502 -0.946794 0.264579 0.183244
-1.0841 0.213429 0.229794 -0.181791 0.225031 0.957243
-1.07971 0.231169 0.233581 0.199289 -0.338016 -0.919798
-1.0927 0.217649 0.221527 -0.341988 0.231867 0.910649
-1.07454 0.249915 0.235921 -0.215686 0.408651 0.886839
-1.06806 0.269056 0.236664 -0.268832 0.451728 0.850689
0.399735 -1.04732 -0.104457 -0.266335 0.837719 0.476752
0.413278 -1.04403 -0.100082 -0.246773 0.791166 0.559606
0.414801 -1.04979 -0.0935355 0.264315 -0.844917 -0.465031
-0.670043 -0.644724 -0.736376 0.726926 -0.39404 0.562416
-0.683195 -0.657429 -0.739186 -0.849168 0.418213 -0.322507
-0.682127 -0.645625 -0.729767 0.840591 -0.458131 0.289002
-0.31536 0.530386 -0.00948987 0.0184111 0.643095 0.765565
-0.307023 0.522191 -0.00217391 -0.0993282 0.754955 0.64821
-0.32484 0.510209 -0.00221433 0.163158 -0.797988 -0.580167
0.480956 -0.236351 -0.0856185 -0.223848 -0.319349 0.920819
0.471791 -0.230268 -0.0925021 0.206681 0.346069 -0.915161
0.483268 -0.233992 -0.0793536 0.278356 0.263542 -0.923614
-0.545144 -0.665306 -0.782044 -0.307565 0.19966 -0.930344
-0.528486 -0.667558 -0.776307 -0.325728 0.20471 -0.923036
-0.528973 -0.684161 -0.790032 0.476184 -0.125174 0.870391
-1.02681 0.36916 0.229595 0.342456 -0.616396 -0.70907
-1.03479 0.362639 0.225498 0.387875 -0.586928 -0.710682
-1.02003 0.363492 0.239586 0.221912 -0.605483 -0.764294
0.511636 -0.708523 0.306793 0.995761 0.0836484 -0.0382541
0.507281 -0.706605 0.315341 -0.995803 -0.0839507 0.0364385
0.50019 -0.723471 0.320712 -0.949357 -0.314185 -0.00297889
-0.012251 0.0351465 0.451082 -0.0524046 0.966654 0.250668
-0.020967 0.0403486 0.440051 -0.0569948 0.973014 0.223598
-1.02604 0.313416 -0.203747 -0.995901 -0.0328672 0.0842627
-1.01908 0.317658 -0.213699 -0.997212 -0.0462382 0.0585662
-0.297948 0.566043 -0.00957492 -0.232044 -0.461952 -0.856011
-0.312749 0.552923 -0.0122144 0.17455 0.496242 0.850457
-0.308165 0.562569 -0.0115099 -0.208148 -0.449919 -0.868474
-0.601332 0.292258 0.18825 0.783561 0.513203 0.350222
-0.59767 0.277805 0.188946 0.740025 0.566696 0.362242
-0.582689 0.282464 0.180174 0.746381 0.584889 0.317521
-0.62218 0.289414 0.198171 0.727883 0.507863 0.460718
-0.635398 0.287463 0.2035 0.670211 0.510052 0.539132
-0.623753 0.266776 0.20261 0.690407 0.522661 0.500164
-0.847983 0.16516 -0.371051 -0.961387 0.248774 -0.117673
-0.838162 0.168281 -0.379254 -0.951452 0.2486 -0.181484
-0.843306 0.154218 -0.389297 -0.94247 0.270037 -0.197055
-0.922226 0.0380498 -0.412987 -0.992459 -0.0627757 -0.105284
-0.920009 0.0531974 -0.404882 -0.984398 0.136136 -0.111483
-0.9578 0.512092 0.170863 0.369411 -0.787421 -0.493461
-0.967723 0.490875 0.185599 0.376194 -0.774456 -0.508621
-0.95752 0.493467 0.191878 -0.284157 0.82385 0.490435
0.565409 -0.551529 0.273437 -0.983108 0.105195 0.149778
0.560226 -0.556411 0.284593 -0.980102 0.0671536 0.186788
0.560424 -0.411513 0.313288 -0.930491 -0.27299 0.244259
0.555994 -0.416463 0.324755 -0.922282 -0.303042 0.239922
-0.957814 0.55273 -0.101655 -0.996457 0.0502379 0.0674495
-0.954599 0.567912 -0.0927732 -0.994283 0.0941111 0.0504459
-0.948103 0.572312 -0.103008 -0.990341 0.135584 -0.029012
-0.938592 0.575687 -0.11144 -0.978989 0.152821 -0.135002
-0.94313 0.560965 -0.121035 -0.984322 0.103918 -0.142519
-0.966497 0.236453 -0.293779 0.864993 0.501516 0.0164065
-0.964902 0.22115 -0.28746 0.720163 0.690969 -0.0626753
-0.0736414 0.145468 0.176548 0.241794 -0.96347 0.115157
-0.847469 0.243483 -0.371953 0.661416 0.643386 0.385466
-0.861243 0.241508 -0.366748 0.647266 0.668036 0.367116
-0.865388 0.266842 -0.374769 0.700659 0.580106 0.415397
-0.211386 0.0395499 0.350251 -0.360349 0.834175 0.417493
-0.455535 0.895302 -0.212918 -0.0487541 0.894157 0.445092
-0.46439 0.900855 -0.223689 0.270486 -0.878783 -0.393164
-0.473952 0.884464 -0.21016 -0.183338 0.864259 0.468448
-0.32612 0.539293 -0.0156818 0.102132 0.529148 0.842361
-0.331589 0.517681 -0.0108105 -0.0540061 0.734997 0.675916
-0.431877 0.626117 0.143817 -0.00904771 0.572049 0.820169
-0.412545 0.643464 0.14817 -0.0371474 0.59245 0.804751
-0.42171 0.648582 0.140154 -0.122897 0.64542 0.753876
-0.503121 0.599451 0.119115 0.035967 -0.836765 -0.54638
-0.510581 0.606195 0.109987 -0.095333 0.867183 0.488779
-0.914748 0.541308 0.1711 0.266945 -0.859754 -0.435389
-0.934621 0.528957 0.170918 0.31012 -0.827838 -0.46745
-0.925266 0.525021 0.18315 0.270377 -0.833466 -0.481904
-0.492406 0.61789 0.109947 -0.208176 0.788719 0.578433
0.0639255 0.0626952 0.416082 -0.0137626 -0.993795 -0.110371
0.0558328 0.0685801 0.406173 -0.0103858 0.993903 0.109767
0.0488246 0.0573742 0.423207 -0.0146387 0.989959 0.140592
0.0704587 0.0729127 0.397986 0.0188328 0.998399 0.0533364
0.0406554 0.0636243 0.413359 -0.0260718 0.986862 0.159447
0.0254259 0.0582597 0.420408 -0.0315602 0.989195 0.143169
0.0336234 0.0520901 0.430338 -0.0145186 0.987943 0.154137
-0.0542811 0.00482264 0.473269 -0.0136669 0.87393 0.485859
0.140088 0.089456 0.350121 0.0802635 0.994241 -0.0710171
0.148181 0.0835424 0.359952 0.113693 0.991641 -0.0610009
0.161384 0.0855333 0.348781 0.141777 0.985873 -0.0891832
0.153672 0.09193 0.339829 0.0976722 0.99121 -0.0892372
-0.940773 -0.0168827 -0.416508 -0.992155 0.117753 -0.0419781
-0.932976 -0.0129475 -0.425876 -0.982301 0.143796 -0.120034
-0.480633 0.556101 0.136758 -0.507316 -0.503495 -0.699373
-0.467989 0.549483 0.137232 -0.462278 -0.383593 -0.799472
-0.669309 0.484885 0.279211 0.503484 0.754587 0.420835
0.146241 0.118028 0.274451 -0.00494643 -0.98004 0.198739
-0.0815471 0.165835 -0.0159763 -0.17534 0.914605 -0.364354
-0.0695125 0.164326 -0.0314752 -0.198309 0.879074 -0.433477
-0.0830427 0.166166 -0.0377445 -0.131734 0.896237 -0.423562
-0.574005 0.522016 0.209403 0.667853 0.740708 0.0729654
-0.579449 0.533026 0.205174 0.509142 0.85814 0.0661037
-0.632508 0.641466 0.0397336 0.056062 0.992793 -0.105918
-0.938175 -0.0658023 -0.43542 -0.928184 -0.371338 0.0241339
-0.715165 -0.725397 -0.278919 -0.625937 0.779123 0.0341996
-0.706613 -0.72182 -0.287929 0.633532 -0.772402 0.0450899
-0.730499 -0.727354 -0.308159 -0.438933 0.853297 -0.281463
-0.862812 0.15707 -0.35181 -0.956606 0.261389 -0.128768
-0.506843 -0.961471 -0.245739 0.380567 -0.912769 0.148399
-0.520145 -0.961228 -0.25474 0.146156 -0.985371 0.0876525
-0.501676 -0.957207 -0.266545 -0.152806 0.983501 -0.0968304
-0.943689 0.393036 -0.260862 -0.974226 0.134987 -0.180726
-0.934955 0.396552 -0.269682 -0.968888 0.121796 -0.215456
-0.937442 0.381276 -0.278126 -0.969542 0.107896 -0.219881
-0.918084 -0.104835 -0.00447204 -0.388101 0.40315 0.828763
-0.913203 -0.12201 0.00469175 0.305638 -0.358107 -0.882239
-0.90764 -0.103447 0.0063214 -0.34805 0.396216 0.849632
-0.344774 -0.264754 -0.595764 0.148645 -0.454623 -0.878193
-0.354019 -0.260483 -0.603745 -0.156273 0.495502 0.854433
-0.337471 -0.244622 -0.595892 -0.149886 0.590439 0.793042
-0.452802 0.0401401 -0.575704 0.450382 -0.0760703 0.889589
-0.46799 0.040888 -0.576347 -0.478239 0.0451731 -0.877067
-0.453476 0.0558445 -0.565517 0.406243 -0.196616 0.892361
-0.511768 0.423988 -0.301761 0.0296719 0.095006 -0.995034
-0.501388 0.420243 -0.295413 -0.0625891 -0.0684627 0.995688
-0.502765 0.403204 -0.30318 -0.0759776 0.0319084 0.996599
-0.116261 -0.846932 -0.428029 -0.0316956 0.999127 0.0272308
-0.126051 -0.842803 -0.436467 -0.0272861 0.999465 0.018046
-0.105498 -0.837286 -0.448666 -0.0342564 0.998816 0.0345343
-0.649453 0.477729 0.273812 0.753982 0.490807 0.436601
-0.358292 0.264921 -0.0122331 0.319379 0.940963 -0.112182
-0.351064 0.25773 -0.0036186 0.237376 0.967411 -0.0881399
-0.337658 0.259562 -0.0154083 0.187341 0.977382 -0.0981174
-0.639601 -0.735396 -0.396179 0.701342 -0.628655 0.336024
-0.628571 -0.733034 -0.403884 0.713242 -0.670538 0.204121
-0.643582 -0.742776 -0.419216 0.581629 -0.789443 0.196181
-0.653781 0.490518 0.272026 0.530493 0.775921 0.341356
-0.501979 -0.204279 -0.662041 0.406762 0.64074 0.651151
-0.493528 -0.182833 -0.66435 0.392366 0.505897 0.768191
-0.486819 -0.204814 -0.661856 -0.382094 -0.610945 -0.693362
-1.02419 0.328728 -0.195791 -0.99287 0.0649521 0.099952
-1.01794 0.333262 -0.206197 -0.996485 0.0596297 0.0588347
-0.537731 0.695913 -0.0890687 0.591288 0.763211 0.260553
-0.53276 0.68404 -0.0859538 0.625586 0.751528 0.209399
-0.518334 0.687812 -0.0953684 0.682612 0.686812 0.249659
-0.057445 0.726659 0.0579116 -0.206016 -0.298141 -0.932024
-0.045946 0.72423 0.0617795 -0.194836 -0.318262 -0.927765
-0.050799 0.704133 0.0596323 -0.156349 -0.365323 -0.917657
-0.679845 -0.642696 -0.0891546 0.684885 0.0656891 -0.725684
-0.680197 -0.626588 -0.0814746 0.677289 0.0995592 -0.72895
-0.682915 -0.637101 -0.100437 0.720289 0.0638272 -0.690731
-1.06956 0.101932 0.167051 0.597991 0.137875 -0.789555
-1.07031 0.116783 0.175382 0.530655 0.127786 -0.8379
-1.07306 0.10739 0.155837 0.653914 0.145109 -0.742523
-0.760161 -0.754933 -0.211397 -0.0461142 0.975588 0.214714
-0.764128 -0.750974 -0.219617 -0.131361 0.979448 0.153054
-0.781754 -0.770794 -0.20243 -0.0814117 0.897386 0.43367
-1.07732 0.160151 0.212712 -0.0540037 -0.322094 0.945166
-1.0785 0.175366 0.223979 0.0580899 0.130261 -0.989777
-1.07731 0.191802 0.231845 0.0680082 -0.076521 -0.994746
-1.07442 0.209158 0.237484 0.119883 -0.214788 -0.969275
-1.0706 0.226426 0.241821 0.086795 -0.324645 -0.941845
-1.06539 0.245113 0.244139 0.101215 -0.407411 -0.907619
-1.05945 0.26365 0.245607 0.113589 -0.462004 -0.879574
-1.05246 0.283394 0.245565 0.121839 -0.500198 -0.857296
-1.04512 0.303002 0.245064 0.127888 -0.538392 -0.832934
-1.05345 0.30738 0.237102 -0.24553 0.532203 0.810232
-1.03739 0.322425 0.244181 0.151838 -0.566528 -0.809933
-1.04559 0.327764 0.23493 0.297287 -0.547437 -0.782261
-1.02875 0.34333 0.241949 -0.195654 0.58536 0.786812
-1.03682 0.347724 0.232745 0.300194 -0.587581 -0.75142
-1.02684 0.383742 0.219238 0.434991 -0.615312 -0.6574
-1.01014 0.385096 0.235646 -0.260433 0.637441 0.725151
-0.506203 -0.596017 0.143523 0.799015 0.380896 -0.465289
-0.498144 -0.607159 0.122275 0.78896 0.353262 -0.502741
-0.49983 -0.612656 0.134346 0.836324 0.31566 -0.448242
0.00307697 0.0408219 0.444136 -0.049634 0.976182 0.211201
-0.00508731 0.0467893 0.43409 -0.0698825 0.979373 0.18959
-0.999803 0.405167 0.231339 -0.282709 0.662993 0.693192
-0.994642 0.416221 0.227913 0.313718 -0.679863 -0.662848
-1.01155 0.400019 0.223821 -0.378151 0.63948 0.669378
0.0189436 0.0471583 0.438093 -0.0301809 0.984574 0.172343
0.0102165 0.0525954 0.427222 0.0566926 -0.984798 -0.164192
-0.961818 0.475066 0.207914 -0.281281 0.784658 0.552442
-0.967894 0.481472 0.195523 -0.346581 0.774573 0.529073
-0.977463 0.464291 0.203887 -0.407103 0.696904 0.590417
0.485132 -0.702575 0.351369 -0.996465 -0.0496402 -0.0677789
0.492847 -0.698484 0.341968 -0.997542 -0.0565898 -0.041327
0.485246 -0.686157 0.358554 -0.996087 -0.065242 -0.0596246
0.641593 -0.878861 0.357707 -0.978423 -0.191835 0.0767307
0.639122 -0.861802 0.363177 -0.95381 -0.284429 0.0966792
0.632768 -0.866408 0.373562 -0.958406 -0.281001 0.049964
0.568336 -0.53583 0.282234 -0.986538 0.0468361 0.156682
0.562579 -0.540446 0.292878 -0.988423 0.0418709 0.145828
0.564325 -0.429368 0.308638 -0.917888 -0.294013 0.26653
0.560085 -0.434263 0.320125 -0.927383 -0.292906 0.232739
-0.944265 0.545126 -0.128694 -0.986067 -0.115199 -0.120008
-0.9525 0.541323 -0.119492 -0.993582 -0.111655 0.0180903
-0.919064 -0.154179 -0.458856 -0.994508 -0.0995043 0.0324526
-0.917776 -0.13859 -0.451256 -0.998524 -0.0541466 0.00416706
-0.910581 -0.13464 -0.461096 -0.996186 -0.0840217 -0.0235175
-0.0749799 -0.0199473 -0.406003 -0.280235 0.209788 -0.936727
-0.182935 -0.610133 -0.546626 0.567945 -0.723204 0.392955
-0.187435 -0.597673 -0.531692 0.618894 -0.290698 0.729702
-0.44128 0.116748 -0.523264 0.490723 0.0139947 0.871203
-0.441978 0.132595 -0.513297 0.503656 -0.187577 0.843294
-0.192756 0.0509528 0.349763 -0.298935 0.878536 0.372576
-0.182776 0.0473176 0.36278 0.27968 -0.878145 -0.388123
-0.20145 0.0360907 0.363324 -0.300091 0.859025 0.414754
-0.691106 0.489236 0.280771 0.301077 0.856174 0.419904
-0.825106 -0.295267 -0.516505 0.712099 0.698693 0.0688689
-0.833732 -0.29893 -0.507627 0.737781 0.673065 0.0516012
-0.474901 0.903683 -0.237996 -0.465069 0.798237 0.38279
-0.368555 0.53386 -0.0316023 0.159243 0.45698 0.875106
-0.364332 0.520958 -0.0271124 0.0191102 0.622738 0.782197
-0.375199 0.529663 -0.0332868 0.104008 0.496546 0.861756
-0.483375 0.612425 0.120557 -0.0768201 0.722487 0.687104
0.112804 0.08393 0.370514 0.0642918 0.997917 -0.00538033
0.120893 0.0776563 0.380238 -0.0719754 -0.99732 0.0131442
0.134574 0.0808423 0.370209 -0.100331 -0.994606 0.0263244
-0.914498 0.561255 0.146186 -0.293286 0.877475 0.379502
-0.925244 0.563735 0.132147 0.342992 -0.862814 -0.371362
-0.935238 0.54835 0.145246 -0.358451 0.827865 0.431454
0.0846037 0.0767125 0.388875 0.0283631 0.999033 0.0335936
0.0784795 0.0669681 0.407775 0.0351653 0.997374 0.0633135
0.0926725 0.0707679 0.398727 -0.0419845 -0.998468 -0.0360435
-0.367302 0.943955 -0.253771 0.423504 0.849374 0.314974
-1.02178 0.344182 -0.187426 -0.987198 0.12533 0.098651
-1.01558 0.348709 -0.197836 -0.990039 0.133451 0.0448786
-0.352651 0.948707 -0.261586 0.496257 0.818473 0.289535
0.17457 0.0876385 0.337607 0.135644 0.983952 -0.115931
0.166768 0.0936619 0.328519 -0.118362 -0.985625 0.120559
-0.857729 -0.263267 -0.49336 -0.931443 -0.361726 0.0396039
-0.425994 0.604109 -0.207774 -0.926208 0.344421 0.153336
-0.42205 0.62025 -0.192873 -0.97938 0.187038 0.0763697
-0.427614 0.60308 -0.204831 0.937859 -0.311216 -0.153507
-0.780854 -0.7814 -0.19323 0.0391848 0.872991 0.486159
-0.612673 -0.962869 0.0353301 -0.3605 0.449775 0.817155
-0.614702 -0.984715 0.0393729 0.451464 -0.433577 -0.779866
-0.602989 -0.974897 0.0480818 -0.369581 0.521554 0.76902
0.133099 0.116489 0.285851 0.010978 -0.99099 0.133486
-0.00505139 -0.114027 0.565417 0.214928 0.731782 0.646763
-0.01113 -0.104217 0.55994 0.174987 0.745987 0.642559
-0.0201528 -0.124488 0.566473 0.139251 0.674033 0.725458
-0.614301 0.651591 0.0061632 0.0749961 0.989405 -0.124309
-0.605682 0.645573 0.0168464 0.0810767 0.988359 -0.128736
-0.592268 0.647419 0.00525502 0.0762347 0.987041 -0.141204
0.0575751 -0.14953 0.580995 -0.458833 -0.662378 -0.592223
0.0357082 -0.145901 0.582402 0.352332 0.62802 0.693868
0.0429488 -0.154637 0.584056 -0.395437 -0.610059 -0.686628
-0.0839238 0.0926551 0.333736 -0.171115 0.981091 0.0904422
-0.0931419 0.0968552 0.321536 -0.172875 0.980573 0.0926881
