ply
format ascii 1.0
comment PCL generated
element vertex 1173
property float x
property float y
property float z
property uchar red
property uchar green
property uchar blue
element camera 0
property float view_px
property float view_py
property float view_pz
property float x_axisx
property float x_axisy
property float x_axisz
property float y_axisx
property float y_axisy
property float y_axisz
property float z_axisx
property float z_axisy
property float z_axisz
property float focal
property float scalex
property float scaley
property float centerx
property float centery
property int viewportx
property int viewporty
property float k1
property float k2
end_header
-0.69148302 0.424225 -0.369405 0 0 0
-0.691302 0.44076201 -0.360237 0 0 0
-0.67784703 0.438757 -0.35751599 0 0 0
-0.0087460503 0.80943203 0.100095 0 0 0
0.0056675398 0.82454997 0.110816 0 0 0
-0.81167299 -0.47757101 -0.065991499 0 0 0
-0.81707001 -0.464385 -0.0490328 0 0 0
-0.82169998 -0.473838 -0.073363997 0 0 0
-0.750157 -0.0225618 0.103406 0 0 0
-0.74367303 -0.0034070399 0.104042 0 0 0
-0.74193901 0.0130578 0.111316 0 0 0
-0.022662601 0.56530797 0.149931 0 0 0
-0.46250001 0.57600802 -0.14073201 0 0 0
-0.462587 0.55492401 -0.14353 0 0 0
-0.46234101 0.55945402 -0.157185 0 0 0
-0.237819 0.53763002 0.0265719 0 0 0
-0.26531997 0.6079241 0.10469943 255 0 0
-0.257177 0.59691298 -0.00124102 0 0 0
-0.26958501 0.59951198 -0.0051281499 0 0 0
-0.30063158 0.6167255 0.16345695 255 0 0
0.568555 -0.400291 0.28863099 0 0 0
-0.912862 0.082037203 -0.38719499 0 0 0
-0.94127315 0.092261411 -0.42830729 255 0 0
-0.0824164 0.55048102 0.17121799 0 0 0
-0.089863397 0.54776299 0.14060099 0 0 0
-0.18478659 0.93227452 0.20447417 255 0 0
0.95173752 -0.19141898 0.42320612 255 0 0
0.563829 -0.32472599 0.26855499 0 0 0
0.55332798 -0.306236 0.27575099 0 0 0
0.56674796 -0.32063058 0.29934314 255 0 0
-0.55365503 -0.52138799 -0.51256102 0 0 0
-0.66972822 -0.55290961 -0.62052983 255 0 0
-0.22331101 -0.47184399 -0.53076601 0 0 0
-0.213645 -0.47617099 -0.52332801 0 0 0
-0.148396 0.104642 0.27470401 0 0 0
-0.247779 0.851098 -0.55301702 0 0 0
-0.225326 0.87734199 -0.56904697 0 0 0
0.062988997 -0.24064399 -0.61297399 0 0 0
0.078189097 -0.240926 -0.61291999 0 0 0
0.075224698 -0.258533 -0.61823303 0 0 0
-0.399499 0.64250797 -0.290912 0 0 0
-0.85064602 -0.83402699 -0.18785299 0 0 0
-0.85867703 -0.82897002 -0.197759 0 0 0
-1.003436 -0.79645509 -0.010008887 255 0 0
-0.841313 -0.81563503 -0.191756 0 0 0
-0.19377901 0.81191802 0.181667 0 0 0
-0.80125701 -0.77357602 -0.208479 0 0 0
-0.82845199 -0.792831 -0.200578 0 0 0
-0.35052699 0.0852786 0.19531199 0 0 0
-0.36726299 0.077370301 0.199843 0 0 0
0.158491 0.71751797 0.123375 0 0 0
0.171855 0.707362 0.126747 0 0 0
-0.40302211 0.16904058 0.39428318 255 0 0
-0.41807899 0.054341801 0.21503 0 0 0
-0.43538901 0.045520399 0.21866401 0 0 0
-0.043788001 0.017543999 -0.360459 0 0 0
-0.056081999 0.020194501 -0.364613 0 0 0
-0.0437558 0.033288699 -0.35096401 0 0 0
-0.26519999 -0.51477301 -0.56458497 0 0 0
-0.27475601 -0.51038003 -0.57211602 0 0 0
-0.26244801 -0.49698901 -0.55881101 0 0 0
0.024427768 0.64181697 0.17245427 255 0 0
0.0314404 0.57645601 0.164915 0 0 0
0.043689199 0.59185898 0.154419 0 0 0
-0.056200199 0.035747599 -0.354821 0 0 0
-0.032009002 -0.123482 -0.47850499 0 0 0
-0.05179869 0.038184211 -0.61715823 255 0 0
-0.035322648 -0.066925839 -0.49978274 255 0 0
-0.57412899 0.53525102 -0.26511201 0 0 0
-0.58579397 0.53803003 -0.26958799 0 0 0
-0.57291901 0.55231202 -0.25725499 0 0 0
-0.702667 0.49925601 -0.30742899 0 0 0
-0.70558202 0.51420403 -0.294559 0 0 0
-0.68801099 0.51431203 -0.29675701 0 0 0
-0.67801201 0.422252 -0.36669201 0 0 0
-0.0740114 0.078024603 -0.30657801 0 0 0
-0.085684396 0.0819223 -0.31320801 0 0 0
-0.805861 -0.46805099 -0.0438735 0 0 0
-0.80034399 -0.481058 -0.060952999 0 0 0
-0.73962498 -0.0263079 0.109707 0 0 0
-0.73225701 -0.0067067398 0.109124 0 0 0
-0.77300966 -0.0096430043 0.21778566 255 0 0
-0.71699101 0.0082454104 0.118628 0 0 0
-0.721744 -0.0104512 0.115512 0 0 0
0.84679151 -0.74099535 0.37702808 255 0 0
0.53622401 -0.296354 0.30605599 0 0 0
0.54389 -0.302315 0.29113799 0 0 0
0.53438699 -0.28498101 0.29677701 0 0 0
0.619591 -0.92333698 0.37114099 0 0 0
0.79264712 -0.96188962 0.51299441 255 0 0
0.61233699 -0.91130197 0.38795701 0 0 0
-0.121733 -0.262743 -0.50334603 0 0 0
-0.205889 -0.54018903 -0.52169299 0 0 0
-0.195366 -0.54391098 -0.515441 0 0 0
-0.56482899 0.100359 -0.56455898 0 0 0
-0.57915598 0.101297 -0.56584698 0 0 0
-0.56831098 0.114373 -0.55095398 0 0 0
0.65809298 -0.95373201 0.21698201 0 0 0
0.186873 -1.1032 0.21920601 0 0 0
0.13523811 -1.313903 0.33902606 255 0 0
0.17815401 -1.0975 0.226881 0 0 0
0.66533899 -0.84037101 0.168339 0 0 0
0.66937202 -0.85012603 0.153313 0 0 0
0.66450697 -0.84033 0.14602301 0 0 0
0.53809202 -0.279367 0.28470901 0 0 0
0.71364093 -0.20367672 0.35866189 255 0 0
0.52994102 -0.26621401 0.30099899 0 0 0
0.52714199 -0.242589 0.292404 0 0 0
0.62195575 -0.21672642 0.34386781 255 0 0
0.51983601 -0.22308099 0.29493999 0 0 0
0.51609403 -0.228644 0.30696899 0 0 0
-0.163828 0.098733202 0.28171 0 0 0
-0.85438401 -0.875359 -0.180067 0 0 0
-0.86865598 -0.888942 -0.190525 0 0 0
-0.84852999 -0.85716599 -0.179133 0 0 0
-0.841452 -0.83890402 -0.17971601 0 0 0
-0.83119798 -0.819058 -0.185032 0 0 0
-0.64002246 -1.0685176 -0.55946171 255 0 0
-0.86984003 -0.85597998 -0.196446 0 0 0
-0.453282 0.035858601 0.221223 0 0 0
-0.476019 0.50408798 -0.213737 0 0 0
-0.42416072 0.52944249 -0.27518162 255 0 0
0.052316356 0.93341839 0.54053897 255 0 0
-0.37927201 -0.0199969 0.27791899 0 0 0
-0.289009 1.1006401 -0.39285699 0 0 0
-0.35069701 0.534365 -0.0254771 0 0 0
-0.341041 0.52590001 -0.0190321 0 0 0
-0.41792601 0.62077802 -0.265037 0 0 0
-0.58535898 -0.65944302 -0.79222 0 0 0
-0.57385701 -0.646662 -0.777372 0 0 0
-0.0504306 -0.055332299 -0.418764 0 0 0
0.315716 -0.99917901 -0.27751601 0 0 0
0.32322699 -0.99408501 -0.27011001 0 0 0
0.315999 -0.99831998 -0.260389 0 0 0
-0.60237402 0.12911201 -0.53755701 0 0 0
-0.61030281 0.26137406 -0.64853233 255 0 0
-0.023939701 0.81049901 0.099895097 0 0 0
-0.58371502 0.45813099 -0.320721 0 0 0
-0.696899 0.47025099 -0.334106 0 0 0
-0.26280299 -0.83568001 -0.440072 0 0 0
-0.251212 -0.824902 -0.460334 0 0 0
-0.80968797 -0.48144099 -0.072731398 0 0 0
-0.79299599 -0.49358901 -0.078884304 0 0 0
-0.68234903 -0.97943503 -0.15819301 0 0 0
-0.68110299 -0.97933698 -0.179028 0 0 0
-0.79454798 -0.471578 -0.038780101 0 0 0
-0.78773201 -0.484952 -0.055401899 0 0 0
-0.72861099 -0.029374501 0.11566 0 0 0
-0.72867 0.0254825 0.129155 0 0 0
0.466582 -0.544406 0.43822101 0 0 0
0.54217601 -0.65149498 0.27878201 0 0 0
0.52665299 -0.27161899 0.313198 0 0 0
-0.226704 0.83203298 -0.43054199 0 0 0
-0.23512501 0.82216799 -0.423792 0 0 0
-0.41442728 0.53819209 -0.15144512 255 0 0
-0.46135199 0.53935599 -0.156655 0 0 0
-0.46103501 0.531892 -0.14134 0 0 0
0.522762 -0.71315902 -0.220644 0 0 0
0.53209901 -0.69878 -0.207692 0 0 0
0.52422798 -0.71948701 -0.204822 0 0 0
-0.21711101 -0.45133501 -0.52902299 0 0 0
-0.206119 -0.45509601 -0.52360898 0 0 0
-0.65677798 -0.613554 -0.61215502 0 0 0
-0.616835 -0.60832602 -0.59711999 0 0 0
-0.00244226 0.61512798 0.107604 0 0 0
0.47563201 -0.57375902 0.415333 0 0 0
-0.93213701 -0.13165399 -0.425322 0 0 0
-0.95709741 -0.12864527 -0.45679319 255 0 0
0.615183 -0.95477003 0.354258 0 0 0
0.61764097 -0.93917501 0.36287099 0 0 0
0.60915601 -0.94309002 0.371874 0 0 0
-0.97432399 0.53784502 -0.068963997 0 0 0
-0.96982098 0.54293102 -0.080323599 0 0 0
-0.62388754 0.36173692 -0.057813723 255 0 0
-0.475869 0.35678101 0.093870498 0 0 0
-0.47068599 0.33706501 0.089260101 0 0 0
-0.83806098 -0.86087197 -0.172727 0 0 0
-0.83103299 -0.84268802 -0.173586 0 0 0
0.50502902 -1.10216 0.191358 0 0 0
0.49759901 -1.10592 0.20110101 0 0 0
0.47055599 -1.1152101 0.17686801 0 0 0
0.38832301 -1.1227601 0.038520701 0 0 0
0.42818889 -1.4102478 0.0033574277 255 0 0
0.37271699 -1.1256 0.0293936 0 0 0
-0.434908 0.593404 -0.227156 0 0 0
-0.435348 0.59871298 -0.239847 0 0 0
-0.419227 0.61144602 -0.238556 0 0 0
-0.422032 0.60759801 -0.22421201 0 0 0
0.71716565 -0.12635565 0.38239515 255 0 0
0.50604302 -0.205156 0.310148 0 0 0
-0.29590794 1.1450378 -0.20979919 255 0 0
-0.32456601 1.03958 -0.342491 0 0 0
-0.33265501 1.02601 -0.32787201 0 0 0
-0.33968499 1.0340199 -0.335639 0 0 0
-0.35529301 1.02758 -0.32976499 0 0 0
-0.34774101 1.02051 -0.32093701 0 0 0
-0.33987099 0.0056132702 0.27959001 0 0 0
-0.32041001 0.0179286 0.28000799 0 0 0
-0.4013781 0.26204938 0.18887499 255 0 0
-0.473795 0.26065499 0.108074 0 0 0
-0.54657602 -0.281014 -0.63419801 0 0 0
-0.55020142 -0.31693926 -0.64456874 255 0 0
-0.58720148 -0.74654037 -0.67839813 255 0 0
-0.0231856 0.79424697 0.089511 0 0 0
-0.53178197 -0.255523 -0.64463401 0 0 0
-0.514781 -0.25472799 -0.64696199 0 0 0
-0.52789003 -0.27921501 -0.63796902 0 0 0
0.485753 -0.31035399 -0.21654899 0 0 0
0.75502211 -0.24566399 -0.30870679 255 0 0
0.48701301 -0.323816 -0.219881 0 0 0
-0.623523 0.480434 -0.31944001 0 0 0
-0.62519401 0.49575201 -0.307888 0 0 0
-0.61000299 0.49478501 -0.30730799 0 0 0
-0.47152299 0.173186 -0.468995 0 0 0
-0.48403099 0.175107 -0.47238401 0 0 0
-0.474159 0.187592 -0.45628601 0 0 0
-0.62196398 0.44918701 -0.34106699 0 0 0
0.00050080998 0.71241802 0.080089301 0 0 0
0.0054156701 0.68882602 0.0841989 0 0 0
0.16750889 -0.53497523 -0.9201647 255 0 0
-0.0169365 -0.64511198 -0.74407101 0 0 0
-0.0072521199 -0.649468 -0.73663199 0 0 0
-0.233079 0.82305199 -0.48769701 0 0 0
-0.22086801 0.83646798 -0.48417699 0 0 0
-0.0210173 -0.63096601 -0.73274601 0 0 0
-0.0075018401 -0.66530901 -0.74563402 0 0 0
-0.77820802 -0.48804501 -0.049744502 0 0 0
-0.5816583 -0.42774782 -0.58686018 255 0 0
-0.58223301 -0.40658599 -0.58231801 0 0 0
-0.710558 -0.0135959 0.121102 0 0 0
-0.70446002 0.0058174999 0.122173 0 0 0
-0.74663734 -0.030219924 0.24560103 255 0 0
-0.69311303 0.00162111 0.12725499 0 0 0
-0.134268 0.68268102 0.0263205 0 0 0
-0.121934 0.68001002 0.0306307 0 0 0
-0.14631499 -0.35671699 -0.51376498 0 0 0
-0.13966601 -0.336326 -0.51292902 0 0 0
-0.131864 -0.357353 -0.51847398 0 0 0
0.63541335 -0.35592598 0.32541904 255 0 0
-0.47182101 0.38025999 0.0901573 0 0 0
-0.34287199 0.69280899 -0.33111599 0 0 0
0.55463898 -0.35302299 0.31599101 0 0 0
0.55781102 -0.34770399 0.30375201 0 0 0
0.54931802 -0.33473301 0.31987599 0 0 0
-0.38727799 0.659567 -0.23456199 0 0 0
-0.38313499 0.67698699 -0.22367001 0 0 0
-0.39376 0.65530902 -0.22419 0 0 0
0.74142551 -1.1535259 0.15246622 255 0 0
0.62648499 -1.01704 0.183275 0 0 0
0.608446 -1.0352499 0.178688 0 0 0
0.63557398 -1.00305 0.19599199 0 0 0
0.63117802 -1.00805 0.207349 0 0 0
0.62224102 -1.0222 0.194627 0 0 0
-0.82753098 -0.86461103 -0.16644301 0 0 0
-1.0125117 -0.71826744 0.3208203 255 0 0
-0.0092274696 0.622545 0.098910503 0 0 0
-0.019703999 0.60298997 0.106957 0 0 0
-0.190396 -0.59433198 -0.71299201 0 0 0
-0.164621 -0.59666598 -0.722938 0 0 0
-0.19352899 -0.60214198 -0.73567301 0 0 0
-0.79675502 -0.80423498 -0.18196499 0 0 0
-0.792759 -0.77789903 -0.19849899 0 0 0
0.38247001 -0.83960301 0.391119 0 0 0
-0.210392 -0.43096399 -0.52844799 0 0 0
-0.199525 -0.43473801 -0.522726 0 0 0
-0.59144902 0.249475 0.18913101 0 0 0
-0.58825397 0.234813 0.188766 0 0 0
-0.65435702 0.666502 -0.0137161 0 0 0
-0.130031 1.20909 -0.465725 0 0 0
-0.123897 1.1986099 -0.46097699 0 0 0
0.112769 0.00916305 -0.236853 0 0 0
0.10148 0.027902 -0.22997101 0 0 0
0.11047 0.0216363 -0.222982 0 0 0
-0.72408402 0.65305901 0.038793098 0 0 0
-0.22138201 1.15504 -0.43088001 0 0 0
-0.59376597 0.57122201 0.16752 0 0 0
-0.48664099 -0.95006198 -0.17296501 0 0 0
-0.47725299 -0.94136697 -0.193372 0 0 0
0.246465 -1.03548 -0.21154501 0 0 0
0.226798 -1.03987 -0.199083 0 0 0
0.236671 -1.03136 -0.219971 0 0 0
-0.42694601 0.326354 -0.258973 0 0 0
-0.430787 0.33418801 -0.259276 0 0 0
-0.42289901 0.32866299 -0.248831 0 0 0
-0.62797803 0.51033598 -0.29466999 0 0 0
-0.61261702 0.50951701 -0.29438999 0 0 0
-0.72101098 0.27529401 -0.40751901 0 0 0
-0.70551002 0.27474001 -0.40671301 0 0 0
-0.71182901 0.25488299 -0.40754601 0 0 0
-0.60837889 0.53625172 -0.3021206 255 0 0
-0.714966 0.29533699 -0.40505901 0 0 0
-0.69946498 0.294745 -0.404881 0 0 0
-0.146027 0.55386502 0.079541497 0 0 0
-0.77034903 -0.49828601 -0.059800301 0 0 0
-0.76868898 -0.49240199 -0.042106401 0 0 0
-0.690368 0.0232831 0.127639 0 0 0
-0.70318002 0.0242872 0.127446 0 0 0
-0.46854499 0.42211199 0.093555696 0 0 0
-0.76434594 0.49786201 -0.2298049 255 0 0
-0.476165 0.399964 0.095559999 0 0 0
-0.41724199 0.41508201 0.0104867 0 0 0
0.63132697 -0.98325503 0.28596401 0 0 0
0.63792902 -0.96876198 0.29711899 0 0 0
0.62438399 -0.98772198 0.29583099 0 0 0
0.52104503 -0.697303 0.29410601 0 0 0
0.52071297 -0.710989 0.288427 0 0 0
0.56647003 -0.38327801 0.29469299 0 0 0
0.38026199 -0.82034397 0.39631501 0 0 0
0.39965501 -0.82966602 0.38818201 0 0 0
0.090731502 0.60641497 0.160135 0 0 0
0.113579 0.61183298 0.17059501 0 0 0
0.547216 -0.60325301 -0.15410399 0 0 0
0.54825598 -0.60929799 -0.14060199 0 0 0
0.54043698 -0.62335598 -0.15413 0 0 0
0.55645001 -1.05949 0.095835596 0 0 0
0.55508202 -1.0643899 0.109762 0 0 0
0.53838098 -0.61748898 -0.16721199 0 0 0
0.55526799 -0.58875 -0.141993 0 0 0
0.55579799 -0.59478801 -0.128259 0 0 0
-0.57097512 0.79870969 -0.33148071 255 0 0
-0.36766699 0.71520001 -0.212596 0 0 0
-0.37643 0.711487 -0.203765 0 0 0
0.57328397 -0.34371099 0.24936201 0 0 0
0.575463 -0.33789599 0.23635601 0 0 0
0.56930602 -0.325836 0.25397199 0 0 0
-0.32431999 0.485511 0.077944197 0 0 0
-0.30246499 0.49800301 0.0988653 0 0 0
-0.97130299 0.29275599 -0.28993401 0 0 0
0.62014002 -0.96631998 0.335998 0 0 0
1.0520635 -1.2180643 0.55433685 255 0 0
0.62343699 -0.95075601 0.34517601 0 0 0
-0.80887902 -0.88452798 -0.161415 0 0 0
-0.80800998 -0.86537403 -0.16111501 0 0 0
-0.815799 -0.86799502 -0.162468 0 0 0
0.16082735 0.81890327 0.28316471 255 0 0
-0.78622001 -0.80802703 -0.17575 0 0 0
-0.75492197 -0.762649 -0.201675 0 0 0
-0.66627997 0.55179101 0.213158 0 0 0
-0.65905201 0.54377002 0.220797 0 0 0
-0.15817 0.108031 0.26152301 0 0 0
-0.174169 0.101359 0.267501 0 0 0
-0.71087003 -0.56904203 -0.158117 0 0 0
-0.70526499 -0.57492203 -0.14414901 0 0 0
-0.89373201 -0.39168 -0.0845908 0 0 0
-0.0167911 0.69571799 0.073287196 0 0 0
-0.48336199 0.41202399 -0.28118899 0 0 0
-0.47524199 0.39063099 -0.28152099 0 0 0
-0.62491202 0.54469502 -0.27903301 0 0 0
-0.611727 0.540389 -0.27739599 0 0 0
-0.54521209 0.53023887 -0.74774408 255 0 0
-0.60809535 0.38476232 -0.38433087 255 0 0
-0.626984 0.52713197 -0.28600201 0 0 0
-0.62365198 0.46424499 -0.32906401 0 0 0
-0.60939002 0.46284601 -0.32749701 0 0 0
-0.603836 -0.986691 -0.18920501 0 0 0
-0.61247402 -0.98141599 -0.19761901 0 0 0
-0.370197 -0.67961001 -0.72109699 0 0 0
-0.38132599 -0.67693198 -0.726354 0 0 0
-0.37108499 -0.66448998 -0.71045601 0 0 0
-0.42838201 -0.57588202 -0.639727 0 0 0
-0.44428834 -0.56583476 -0.65213335 255 0 0
-0.428222 -0.559964 -0.630606 0 0 0
-0.100821 -0.79318601 -0.53718299 0 0 0
-0.111613 -0.79012299 -0.54569203 0 0 0
-0.690211 -0.021593399 0.134372 0 0 0
-0.68176401 -0.0015953199 0.13252801 0 0 0
0.76098388 -0.71981704 0.41271329 255 0 0
0.52764797 -0.67634499 0.29107499 0 0 0
-0.211697 -0.57576102 -0.532893 0 0 0
-0.209727 -0.55866098 -0.526133 0 0 0
-0.20113499 -0.57949001 -0.526631 0 0 0
-0.27144599 0.50158501 0.088880703 0 0 0
-0.295241 0.49720499 0.051981401 0 0 0
0.54191315 -0.41459456 0.45157418 255 0 0
0.491025 -0.42069 0.42544001 0 0 0
0.49484301 -0.43804201 0.42083499 0 0 0
0.51213002 -1.02817 -0.021543801 0 0 0
0.50928402 -1.0358 -0.0140298 0 0 0
0.49121699 -1.04637 -0.029963501 0 0 0
0.012853 0.75276202 0.083090298 0 0 0
-0.454384 -0.95922202 -0.14724401 0 0 0
-0.471497 -0.96168602 -0.13513499 0 0 0
-0.463121 -0.95405102 -0.155607 0 0 0
0.61164403 -1.03159 0.216545 0 0 0
0.62087798 -1.01765 0.229329 0 0 0
0.60577101 -1.0362099 0.227098 0 0 0
-0.53375918 0.91565108 -0.41848704 255 0 0
-0.20049661 1.1249168 -0.61650634 255 0 0
-0.077173397 1.1109 -0.46927199 0 0 0
-0.085001104 1.08846 -0.467464 0 0 0
-0.46936399 0.325991 0.088780299 0 0 0
-0.71189868 0.31179482 -0.13433756 255 0 0
-0.093247198 1.0660599 -0.466295 0 0 0
-0.81595302 -0.74449801 -0.36354899 0 0 0
-0.80218899 -0.74381399 -0.369728 0 0 0
0.20534444 0.21400301 -0.49197805 255 0 0
0.042525701 0.036949702 -0.284071 0 0 0
0.0463752 0.023249 -0.29860601 0 0 0
0.59810501 -0.48349401 0.207084 0 0 0
0.60190201 -0.47817999 0.19497199 0 0 0
0.59649199 -0.46617699 0.213718 0 0 0
-0.28607601 0.49916399 0.094606303 0 0 0
-0.0102233 -0.61591601 -0.68542802 0 0 0
-0.0216773 -0.61279702 -0.69063503 0 0 0
-0.0174403 -0.60589898 -0.66599399 0 0 0
0.530563 -0.295623 0.32256401 0 0 0
0.54090202 -0.30682501 0.313438 0 0 0
-0.79886103 -0.83003998 -0.16808499 0 0 0
-0.80556202 -0.82411599 -0.173454 0 0 0
-0.78678501 -0.83247602 -0.163491 0 0 0
-0.77385998 -0.81092101 -0.171959 0 0 0
-0.74727899 -0.79243702 -0.179159 0 0 0
-0.72930199 -0.76638502 -0.19534799 0 0 0
-0.210278 1.0509501 -0.38998401 0 0 0
-0.224861 1.04696 -0.381044 0 0 0
-0.23936699 1.04307 -0.371885 0 0 0
-0.253842 1.0385799 -0.363563 0 0 0
-0.96938372 0.12610666 -0.25858775 255 0 0
-0.97583199 0.55461001 -0.062917002 0 0 0
-0.96892202 0.55888098 -0.072844602 0 0 0
-0.190861 0.093427598 0.27307299 0 0 0
-0.97703898 0.571298 -0.0566613 0 0 0
-1.3846848 0.73751932 -0.25777939 255 0 0
-0.69837701 -0.58216703 -0.131818 0 0 0
-0.58570898 -0.942671 -0.28672799 0 0 0
-0.60324401 -0.94577301 -0.27484101 0 0 0
-0.59431797 -0.93740898 -0.295091 0 0 0
-0.69641203 0.31311199 -0.400498 0 0 0
-0.710908 0.31419399 -0.401205 0 0 0
-0.044218 1.16412 -0.51896399 0 0 0
-0.058664199 1.15773 -0.53017902 0 0 0
-0.070064202 1.17296 -0.52574199 0 0 0
-0.76905602 0.39776599 -0.382384 0 0 0
-0.76122159 0.42782268 -0.45225653 255 0 0
-0.75396597 0.382532 -0.39400399 0 0 0
0.27071601 -0.0477801 -0.139852 0 0 0
0.27505699 -0.0409582 -0.123344 0 0 0
0.27919501 -0.052880201 -0.131038 0 0 0
-0.35801074 -0.6653223 -0.77605659 255 0 0
-0.37977299 -0.68194598 -0.72876501 0 0 0
0.064429998 0.58467799 0.17932101 0 0 0
0.058812901 0.58282 0.18142401 0 0 0
0.380043 -0.072156496 -0.023273099 0 0 0
0.37121201 -0.051309399 -0.022573199 0 0 0
0.38478199 -0.0569425 -0.0068947198 0 0 0
0.51828802 -0.63663203 -0.256603 0 0 0
0.51381099 -0.62607503 -0.26398301 0 0 0
0.51475 -0.61597401 -0.25571999 0 0 0
-0.115564 -0.83244997 -0.45851299 0 0 0
-0.094033085 -0.82951415 -0.47249994 255 0 0
-0.198208 0.65136302 0.0105507 0 0 0
-0.193426 0.67092198 0.0137403 0 0 0
-0.184081 0.64982998 0.0127391 0 0 0
-0.67044199 -0.0047393302 0.137862 0 0 0
-0.72958398 -0.75057602 -0.221302 0 0 0
0.15183 0.69635499 0.127956 0 0 0
-0.278891 0.50827903 0.110386 0 0 0
-0.2895 0.75366002 -0.39519501 0 0 0
-0.276577 0.76739502 -0.392313 0 0 0
-0.27907699 0.76333302 -0.377951 0 0 0
-0.29222101 0.53544402 -0.00103979 0 0 0
-0.49996075 0.80574965 0.36075243 255 0 0
-0.462275 0.61328697 0.131954 0 0 0
-0.452277 0.60874802 0.13878401 0 0 0
0.55112201 -0.67456698 0.24172001 0 0 0
-0.460116 0.58841401 0.13985001 0 0 0
-0.46489599 0.626993 0.123578 0 0 0
0.55216801 -0.658369 0.24952 0 0 0
-0.531201 0.587749 -0.25713599 0 0 0
-0.51763999 0.58786899 -0.25992101 0 0 0
-0.358989 0.47209701 0.065799601 0 0 0
-0.36171699 0.47080699 0.032677401 0 0 0
-0.367834 0.733594 -0.20469899 0 0 0
-0.58054262 0.78587514 -0.39469019 255 0 0
-0.783005 -0.85486102 -0.158141 0 0 0
-0.77264798 -0.834535 -0.162135 0 0 0
-0.79600197 -0.85234302 -0.160246 0 0 0
-0.76064497 -0.81328201 -0.16923299 0 0 0
0.55087602 -0.93293399 0.43019599 0 0 0
0.56370801 -0.93100399 0.42323199 0 0 0
0.55195397 -0.91640699 0.43493199 0 0 0
-0.94123697 -0.15198401 -0.023044599 0 0 0
-0.72001702 -0.74891502 -0.197936 0 0 0
-0.74183297 -0.76479697 -0.19837201 0 0 0
-0.55264199 0.59322703 -0.25709099 0 0 0
-0.537929 0.595806 -0.26091599 0 0 0
-0.142756 0.11384 0.25446099 0 0 0
-0.245286 0.062945202 0.277399 0 0 0
-0.226411 0.073964097 0.27671099 0 0 0
-0.208251 0.0842456 0.275047 0 0 0
-0.33424801 0.9050703 0.20204364 255 0 0
-0.18787 0.53736901 0.070146397 0 0 0
-0.164792 0.54225802 0.079954103 0 0 0
-0.624699 0.56137002 -0.27015299 0 0 0
-0.62555599 0.57736301 -0.25972199 0 0 0
-0.61107397 0.57585198 -0.25827599 0 0 0
-0.74878502 0.26945499 -0.40671 0 0 0
-0.73541999 0.27644199 -0.40796301 0 0 0
-0.393648 -0.377473 -0.58210999 0 0 0
0.0021053799 -0.66971397 -0.73817199 0 0 0
0.00222461 -0.65399498 -0.72904903 0 0 0
-0.15289401 -0.43720299 -0.51835001 0 0 0
-0.16133399 -0.44116801 -0.51210499 0 0 0
-0.16987 -0.42044601 -0.51166201 0 0 0
-0.38072401 -0.69851899 -0.74228603 0 0 0
-0.39156401 -0.678783 -0.73519301 0 0 0
-0.27905199 -0.041012 -0.550412 0 0 0
-0.27758601 -0.024089901 -0.54283202 0 0 0
-0.268327 -0.028832201 -0.53477597 0 0 0
-0.26739901 0.169201 -0.39194599 0 0 0
-0.17728117 0.25345385 -0.4590672 255 0 0
-0.25517499 0.14996301 -0.39922801 0 0 0
-0.18001001 0.66891497 0.0159718 0 0 0
-0.175273 0.68843699 0.0194517 0 0 0
-0.30021358 0.63926375 0.55938935 255 0 0
-0.62164003 -0.94986498 -0.26317999 0 0 0
-0.63026702 -0.94459498 -0.27158701 0 0 0
-0.61187798 -0.94048601 -0.28327999 0 0 0
-0.65907001 -0.0080094002 0.143537 0 0 0
-0.64050901 0.0076484098 0.14742 0 0 0
-0.63937902 0.013301 0.14573 0 0 0
-0.6512 0.0114636 0.141559 0 0 0
-0.50320703 0.57254201 -0.24446499 0 0 0
-0.40178099 0.63348699 -0.26367 0 0 0
-0.470314 0.56410003 -0.21509901 0 0 0
-0.45244399 0.57123703 -0.202097 0 0 0
0.88708681 -0.60803878 0.771999 255 0 0
-0.45251301 0.56673503 0.140297 0 0 0
-0.44760001 0.58562398 0.143259 0 0 0
0.30064699 -1.03818 -0.198346 0 0 0
0.30005199 -1.02426 -0.198753 0 0 0
0.31937301 -1.01562 -0.18926001 0 0 0
-0.44093299 0.60556197 0.14408299 0 0 0
-0.59865499 0.0508935 0.14381599 0 0 0
-0.58291799 0.041500401 0.149912 0 0 0
-0.57071698 0.063629203 0.14319 0 0 0
0.40745601 -1.03563 -0.113859 0 0 0
0.99783933 -0.76036382 0.33893046 255 0 0
-0.397531 0.37376601 -0.043530598 0 0 0
-0.394683 0.37943199 -0.055911601 0 0 0
-0.48326445 0.38390473 -0.055900116 255 0 0
0.61972898 -0.89080203 0.38540399 0 0 0
0.94916219 -0.97151834 0.71308619 255 0 0
-0.928967 -0.34753701 -0.103272 0 0 0
-0.92921299 -0.357566 -0.124174 0 0 0
-0.92249697 -0.363653 -0.1122 0 0 0
-0.76962799 -0.85718697 -0.154275 0 0 0
-0.76011997 -0.83775198 -0.15905499 0 0 0
-0.79502302 -0.86724102 -0.158786 0 0 0
-0.78213102 -0.86904299 -0.156314 0 0 0
-0.748092 -0.81655699 -0.166127 0 0 0
-0.73520201 -0.79485703 -0.174712 0 0 0
-0.204909 -0.411235 -0.52596802 0 0 0
-0.193799 -0.41498101 -0.52066302 0 0 0
-0.72155499 -0.77273101 -0.184633 0 0 0
-0.71234 -0.752711 -0.188307 0 0 0
-0.127268 0.119565 0.247382 0 0 0
-0.70285302 -0.73428798 -0.190295 0 0 0
-0.694341 -0.72262698 -0.171987 0 0 0
-0.69471401 -0.71708298 -0.180547 0 0 0
-0.229921 0.161819 0.077747002 0 0 0
-0.24374001 0.159435 0.088465802 0 0 0
-0.221719 0.15619101 0.087890498 0 0 0
-0.26365501 0.79652399 -0.490325 0 0 0
-0.248143 0.80967897 -0.48896599 0 0 0
-0.25093701 0.80599302 -0.47454399 0 0 0
-0.800798 0.58870798 0.158462 0 0 0
-0.80901498 0.59416401 0.148555 0 0 0
-0.90578997 0.53783 0.18370999 0 0 0
-0.77112502 0.61633801 0.11608 0 0 0
-0.76224202 0.61127597 0.12699699 0 0 0
-0.37981901 0.66394299 -0.31762499 0 0 0
-0.36374801 0.67184597 -0.30353001 0 0 0
-1.2175912 0.32546479 -0.18147981 255 0 0
-1.0718499 0.26807299 -0.10457 0 0 0
-0.21548 1.02177 -0.37677899 0 0 0
-0.69029701 -0.599787 -0.140467 0 0 0
-0.332398 -0.97843999 -0.124159 0 0 0
-0.35061201 -0.98197699 -0.112103 0 0 0
-0.34117499 -0.97329301 -0.132495 0 0 0
-0.124763 -1.01122 -0.083038099 0 0 0
-0.134569 -1.00708 -0.091564998 0 0 0
-0.12497766 -1.0286245 -0.11489829 255 0 0
-0.69400603 -0.58802301 -0.119258 0 0 0
-0.40785599 -0.37647101 -0.58272099 0 0 0
-0.52881402 -0.62169701 -0.73105401 0 0 0
-0.54087502 -0.62467301 -0.74191803 0 0 0
-0.54301 -0.62136298 -0.73718297 0 0 0
-0.32932362 -0.27231252 -0.73548478 255 0 0
-0.393347 -0.24235401 -0.63431001 0 0 0
-0.37579 -0.225953 -0.62813598 0 0 0
-0.39563701 0.49485299 -0.034631498 0 0 0
-0.38156101 0.50837803 -0.029531499 0 0 0
-0.39025301 0.487946 -0.022670001 0 0 0
-0.00597833 -0.036919702 -0.37769401 0 0 0
-0.00671345 -0.021576701 -0.36738601 0 0 0
0.0056094299 -0.0242636 -0.36327699 0 0 0
0.51305902 -0.64116299 -0.27852601 0 0 0
-0.15294901 -0.37704501 -0.514615 0 0 0
-0.14107101 -0.377316 -0.51827198 0 0 0
0.0048452602 -0.0088922698 -0.35287601 0 0 0
-0.75082701 -0.70874602 -0.710971 0 0 0
-0.74300301 -0.69474602 -0.708924 0 0 0
-0.73507297 -0.70773798 -0.72321802 0 0 0
-0.75311184 -0.0086108604 0.45536208 255 0 0
0.57056201 -0.66542298 0.17520501 0 0 0
0.56662703 -0.67053097 0.187356 0 0 0
0.65899998 -0.939583 0.274683 0 0 0
0.65438497 -0.94445997 0.28606799 0 0 0
0.64829397 -0.95921201 0.27508101 0 0 0
0.11586859 1.0106544 -0.6875757 255 0 0
-0.058557801 1.05145 -0.56566298 0 0 0
-0.88349903 -0.28135899 -0.453091 0 0 0
-0.87254202 -0.29517001 -0.46768299 0 0 0
-0.44364101 0.54674798 0.13944 0 0 0
-0.439188 0.564448 0.142883 0 0 0
-0.45636699 0.54821402 0.137932 0 0 0
-0.46574479 0.57852858 0.28753126 255 0 0
-0.42872 0.60281098 0.14833599 0 0 0
-0.421967 0.62317598 0.149037 0 0 0
-0.403395 0.63999301 0.15409601 0 0 0
0.338772 -0.97942501 -0.31966799 0 0 0
0.33682299 -0.97956198 -0.30451101 0 0 0
0.483594 -0.586294 0.39891601 0 0 0
0.48345399 -0.56968498 0.40603799 0 0 0
-0.400855 0.39970201 -0.0518023 0 0 0
-0.40529901 0.41280901 -0.032548599 0 0 0
-0.469787 -0.95294303 -0.270843 0 0 0
0.50125802 -0.47321799 0.41026801 0 0 0
-0.70305902 -0.75977701 -0.487569 0 0 0
-0.70949602 -0.780325 -0.48107401 0 0 0
0.48022899 -0.38421801 0.43327099 0 0 0
0.399241 -1.03097 -0.123192 0 0 0
-0.75706702 -0.86034 -0.15144999 0 0 0
-0.74790102 -0.84041101 -0.15451901 0 0 0
-0.735838 -0.81932098 -0.162 0 0 0
-0.85268998 -0.68634039 0.066108651 255 0 0
-0.71372199 -0.77769798 -0.174445 0 0 0
-0.70624399 -0.75857103 -0.17562801 0 0 0
-0.69982398 -0.74038702 -0.174546 0 0 0
-0.48486099 -0.83114499 -0.0021519701 0 0 0
-0.28400001 0.52748001 0.0067241201 0 0 0
-0.27857399 0.52053899 0.0163057 0 0 0
-0.974693 0.58667499 -0.048413798 0 0 0
-0.968162 0.591187 -0.058401398 0 0 0
-0.0959424 0.557652 0.109645 0 0 0
-0.075268596 0.56793201 0.107722 0 0 0
-0.072576798 0.56192398 0.118652 0 0 0
-1.0629801 0.313366 -0.078495704 0 0 0
-1.0697 0.308943 -0.068547502 0 0 0
-1.06014 0.32851601 -0.069996603 0 0 0
-0.39069 0.94794798 -0.253342 0 0 0
-0.38407499 0.93892998 -0.246952 0 0 0
0.070833303 -0.188316 -0.59596401 0 0 0
0.085902698 -0.188907 -0.59513998 0 0 0
0.082200304 -0.206807 -0.60033399 0 0 0
0.071897201 -0.172122 -0.588067 0 0 0
-0.637824 -0.015432 0.155352 0 0 0
-0.62753898 0.0055897301 0.150792 0 0 0
-0.61623102 0.0269947 0.145007 0 0 0
-0.66254789 0.019484948 0.34061688 255 0 0
-0.467531 0.55792898 -0.204053 0 0 0
-0.96784502 0.60050201 -0.037363701 0 0 0
-0.96313298 0.60567403 -0.048546899 0 0 0
-0.267894 0.54021198 0.0082241604 0 0 0
-0.29405579 0.57665491 0.075525604 255 0 0
0.47490799 -0.365922 0.43726 0 0 0
-0.076352201 1.03641 -0.50014198 0 0 0
-0.075243197 1.05467 -0.49173701 0 0 0
0.52038801 -0.28233299 0.33773699 0 0 0
0.51425499 -0.264222 0.34127599 0 0 0
0.51408899 -0.44779301 0.39697 0 0 0
0.51038599 -0.42999399 0.40199199 0 0 0
0.562433 -0.38819599 0.306288 0 0 0
-0.42198101 0.58060402 0.14984301 0 0 0
-0.41702601 0.59957302 0.15275399 0 0 0
-0.41046599 0.61987299 0.154318 0 0 0
0.20027301 -0.90077198 -0.35693899 0 0 0
0.20604999 -0.90907001 -0.348943 0 0 0
-0.394656 0.66113597 0.152237 0 0 0
0.623447 -0.97727698 0.31665799 0 0 0
-0.957039 0.61280799 -0.024179799 0 0 0
-0.95243502 0.61808902 -0.0352768 0 0 0
-0.0669038 1.00896 -0.54090703 0 0 0
-0.090054698 1.10874 -0.46254301 0 0 0
-0.095733598 1.08535 -0.46013501 0 0 0
-0.76940399 -0.87076497 -0.15301301 0 0 0
-0.750552 -0.88138801 -0.148295 0 0 0
-0.74456698 -0.86329103 -0.147798 0 0 0
-0.77806622 -0.87699014 -0.098103769 255 0 0
-0.73541999 -0.84344202 -0.15093499 0 0 0
-0.72446299 -0.82261097 -0.15684301 0 0 0
-0.71508098 -0.80271697 -0.16066501 0 0 0
-0.70619398 -0.78259897 -0.163965 0 0 0
-0.69940603 -0.763919 -0.164074 0 0 0
-0.69489801 -0.74642301 -0.16042399 0 0 0
-0.69151402 -0.72843498 -0.156721 0 0 0
-0.68872398 -0.71186101 -0.15029 0 0 0
-0.69009298 -0.70648599 -0.161983 0 0 0
0.486595 -0.29871199 0.40470701 0 0 0
-0.283573 0.78066403 -0.47617099 0 0 0
-0.283654 0.78541499 -0.48909 0 0 0
-0.44211301 0.58628798 -0.197643 0 0 0
0.215271 0.68149102 0.155536 0 0 0
0.20958599 0.676045 0.166091 0 0 0
0.20517699 0.67987901 0.14391699 0 0 0
-0.39974701 0.932455 -0.24098501 0 0 0
0.058392104 0.2734063 0.5808146 255 0 0
-0.560938 0.53307199 -0.262052 0 0 0
0.079290703 0.050156198 0.43430999 0 0 0
0.088737398 0.66932702 0.120961 0 0 0
0.080940202 0.64854401 0.12665799 0 0 0
-0.627105 -0.0193756 0.161061 0 0 0
-0.61531901 0.00296544 0.154902 0 0 0
-0.60547101 0.023028299 0.150345 0 0 0
-0.37514001 0.66889501 -0.255299 0 0 0
0.59977901 -0.417851 0.0139177 0 0 0
0.59230399 -0.42366201 -0.0083585503 0 0 0
0.59459502 -0.408281 0.0064274399 0 0 0
-0.95416498 0.58340001 -0.085193902 0 0 0
-0.94598401 0.58725202 -0.094435498 0 0 0
-0.203335 -0.282686 -0.53187799 0 0 0
-0.200395 -0.26499599 -0.52629298 0 0 0
-0.190983 -0.269384 -0.51854402 0 0 0
0.44084299 -0.200221 -0.099742703 0 0 0
0.429829 -0.196072 -0.106569 0 0 0
0.43142501 -0.181245 -0.095314503 0 0 0
-0.055507999 -0.65905899 -0.79235297 0 0 0
-0.055861201 -0.64376497 -0.78261203 0 0 0
-0.045161501 -0.647255 -0.776568 0 0 0
0.0861068 -0.84323603 -0.59584099 0 0 0
0.071501002 -0.84234601 -0.58285999 0 0 0
0.076264203 -0.83908898 -0.60427201 0 0 0
0.47668499 -0.640046 0.38744399 0 0 0
-1.0339299 0.44255099 0.0153334 0 0 0
-0.416888 0.56231397 0.146552 0 0 0
-0.40289 0.59763002 0.156285 0 0 0
-0.39874199 0.61659998 0.158214 0 0 0
-0.391976 0.63679802 0.159106 0 0 0
-0.125479 0.939502 -0.52855498 0 0 0
-0.124622 0.93506402 -0.54162502 0 0 0
-0.365583 0.70490497 0.15128 0 0 0
-0.3696 0.688106 0.157583 0 0 0
-0.40818101 0.42539001 -0.0123702 0 0 0
0.61585402 -0.98128802 0.32623601 0 0 0
-0.49526101 0.38241899 -0.30464399 0 0 0
-0.40046701 0.36803201 -0.0311755 0 0 0
-0.43290699 0.43689701 0.058964498 0 0 0
0.082826398 0.69138801 0.112956 0 0 0
0.053917706 0.73319697 0.24226122 255 0 0
-0.86825502 -0.92333215 0.23193587 255 0 0
-0.77064157 -0.88928014 -0.15365346 255 0 0
-0.73893899 -0.88475502 -0.14368901 0 0 0
-0.73301399 -0.86665601 -0.142983 0 0 0
-0.72313601 -0.84633601 -0.14701401 0 0 0
-0.71377897 -0.82645398 -0.150776 0 0 0
-0.70454103 -0.80647099 -0.15437999 0 0 0
-0.69738001 -0.787229 -0.155224 0 0 0
-0.69189799 -0.76886803 -0.153696 0 0 0
-0.68785203 -0.75132197 -0.149793 0 0 0
-0.68536502 -0.73471099 -0.14348599 0 0 0
-0.680911 -0.73940599 -0.13568 0 0 0
-0.183249 -0.41866401 -0.51440698 0 0 0
0.041490301 0.0467677 0.440043 0 0 0
-0.414947 0.926763 -0.234134 0 0 0
0.176092 0.072049402 0.36591199 0 0 0
-0.61538899 -0.022881201 0.165701 0 0 0
-0.60535097 -0.00162431 0.161516 0 0 0
-0.594244 0.020028301 0.155926 0 0 0
-0.62474799 0.429169 0.23467 0 0 0
-0.61394 0.43209001 0.227419 0 0 0
-0.61011899 0.44916499 0.237358 0 0 0
0.43896508 0.95254833 0.2316474 255 0 0
0.28293601 0.87444401 0.14147501 0 0 0
0.27241901 0.89275903 0.14591201 0 0 0
-0.14416 0.539397 0.117094 0 0 0
-0.142932 0.54287398 0.103496 0 0 0
-0.11865 0.54752803 0.112558 0 0 0
-0.22185899 0.578942 0.0133877 0 0 0
-0.205816 0.59162003 0.0150388 0 0 0
-0.212372 0.57047099 0.0204009 0 0 0
0.252722 0.75080597 0.121895 0 0 0
0.243065 0.73126602 0.127469 0 0 0
-0.044630099 -0.66261703 -0.78654498 0 0 0
-0.64099699 0.431041 0.244536 0 0 0
-0.632653 0.40684199 0.23651899 0 0 0
-0.89755899 0.63603699 -0.121779 0 0 0
-0.88654101 0.63875598 -0.129114 0 0 0
-0.88899499 0.623649 -0.13769899 0 0 0
-0.43577999 0.60414898 -0.25247499 0 0 0
-0.197798 0.87568003 -0.56463498 0 0 0
-0.421287 -0.99396902 -0.063805699 0 0 0
0.64640301 -0.96885902 0.25265199 0 0 0
0.652843 -0.95395398 0.263982 0 0 0
0.64176798 -0.97371602 0.26402801 0 0 0
-0.38557801 0.61435002 0.161512 0 0 0
-0.379637 0.63414299 0.16297001 0 0 0
-0.37362501 0.653781 0.16476899 0 0 0
-0.36512899 0.67541403 0.163588 0 0 0
-0.392598 0.35413599 -0.048459601 0 0 0
-0.39633599 0.34909299 -0.036678299 0 0 0
-0.27914184 0.38085699 0.03309964 255 0 0
-0.39970201 0.34312901 -0.0245253 0 0 0
-0.918836 -0.12223 -0.445299 0 0 0
-0.91182601 -0.118067 -0.45519799 0 0 0
-0.87207103 0.64019901 -0.13436601 0 0 0
-0.87683302 0.62598902 -0.14423899 0 0 0
-0.899988 -0.239373 -0.45007101 0 0 0
-0.90558797 -0.24718501 -0.43789801 0 0 0
-0.74308401 -0.90227002 -0.146907 0 0 0
-0.72764403 -0.88812703 -0.138236 0 0 0
-0.72182101 -0.86990601 -0.137178 0 0 0
-0.71345103 -0.85047299 -0.139496 0 0 0
-0.70337099 -0.83012098 -0.144297 0 0 0
-0.69416702 -0.81016898 -0.147889 0 0 0
-0.68813801 -0.79190099 -0.146809 0 0 0
-0.68398201 -0.77388299 -0.14356899 0 0 0
-0.160028 0.13258199 -0.333316 0 0 0
-0.176503 0.139516 -0.33751601 0 0 0
-0.68078601 -0.75669599 -0.13845301 0 0 0
-0.43121901 0.91941398 -0.229286 0 0 0
-0.68163699 -0.58420801 -0.032640401 0 0 0
-0.68552399 -0.570243 -0.0181721 0 0 0
-0.69272298 -0.564996 -0.0294967 0 0 0
-0.404129 -0.99148601 -0.075955197 0 0 0
-0.41392401 -0.98738402 -0.0843869 0 0 0
-0.39572901 -0.98386598 -0.096397698 0 0 0
-0.71299344 0.34555149 -0.72345155 255 0 0
-0.68611902 0.24355701 -0.40589899 0 0 0
0.58542103 -0.493209 -0.043123901 0 0 0
0.58165699 -0.481812 -0.052802 0 0 0
0.58954501 -0.47172299 -0.0339122 0 0 0
-0.81234998 -0.95165199 -0.185479 0 0 0
-0.80974299 -0.95488602 -0.191936 0 0 0
-0.797791 -0.956873 -0.182209 0 0 0
0.58804202 -0.49967301 -0.0287739 0 0 0
0.596448 -0.485733 -0.0142293 0 0 0
-0.60514599 -0.026354801 0.172599 0 0 0
-0.59570098 -0.0059077898 0.168927 0 0 0
-0.58463001 0.015798399 0.16335 0 0 0
-0.57338399 0.037361398 0.15736701 0 0 0
-0.56117702 0.084004499 0.138945 0 0 0
0.228071 -1.11225 0.24241699 0 0 0
0.237937 -1.11625 0.25084099 0 0 0
0.145081 0.67545903 0.13379399 0 0 0
0.126341 0.66400999 0.13426 0 0 0
-0.236977 0.81952399 -0.47250301 0 0 0
-0.056863401 0.57960403 0.107374 0 0 0
0.205183 0.743357 0.1207 0 0 0
0.220443 0.74235302 0.121114 0 0 0
-0.37618199 0.59649402 0.155873 0 0 0
-0.37130499 0.61266202 0.162468 0 0 0
-0.38918 0.59673703 0.15774199 0 0 0
-0.36646801 0.63187701 0.16609301 0 0 0
-0.361424 0.65118998 0.16893101 0 0 0
-0.355344 0.67101097 0.170725 0 0 0
0.64781302 -0.973638 0.21739 0 0 0
0.65469199 -0.958933 0.2291 0 0 0
0.644122 -0.978679 0.229514 0 0 0
-0.87806201 0.651124 -0.117 0 0 0
-0.96883744 0.89496052 -0.28934112 255 0 0
0.092832997 0.59995902 0.172893 0 0 0
-0.87592798 0.609631 -0.15115701 0 0 0
-0.730959 -0.905357 -0.142627 0 0 0
-0.47484401 0.61883199 -0.291116 0 0 0
-0.44667199 0.62733603 -0.29719901 0 0 0
-0.443793 0.62136799 -0.28611299 0 0 0
-0.79055667 -0.89955944 0.10716439 255 0 0
-0.71034098 -0.87326998 -0.132295 0 0 0
-0.7189346 -0.84721303 -0.091600865 255 0 0
-0.693726 -0.83429199 -0.13670599 0 0 0
-0.68544298 -0.81472999 -0.138982 0 0 0
-0.67989498 -0.79641497 -0.13745899 0 0 0
-0.67613798 -0.77884299 -0.133422 0 0 0
-0.67352599 -0.76203698 -0.12720899 0 0 0
-0.664828 -0.75082397 -0.109008 0 0 0
-0.67219901 -0.72981 -0.111032 0 0 0
-0.67219299 -0.74555898 -0.120227 0 0 0
-0.37819576 0.53679138 0.035211906 255 0 0
-0.82131302 0.50634801 -0.27257901 0 0 0
-0.319971 0.269541 -0.049525902 0 0 0
-0.33330101 0.26802501 -0.037688799 0 0 0
-0.31175801 0.26353601 -0.039521299 0 0 0
-0.33522099 0.70729601 -0.293625 0 0 0
-0.33350399 0.702977 -0.31303701 0 0 0
-0.68575299 -0.58379197 -0.046526901 0 0 0
-0.28828999 0.75806302 -0.408811 0 0 0
-0.27408701 0.77148497 -0.40666801 0 0 0
-0.58535099 -0.0094606401 0.17565 0 0 0
-0.57568699 0.0108775 0.171671 0 0 0
-0.77525932 0.24916078 0.69513273 255 0 0
-0.49730101 0.56519401 -0.235144 0 0 0
-0.49076501 0.55777103 -0.226402 0 0 0
-0.43911901 0.45056099 0.077083997 0 0 0
0.52631301 -1.07977 0.0986875 0 0 0
0.520154 -1.0975021 0.11890534 255 0 0
0.54040098 -1.07951 0.142821 0 0 0
-0.353962 0.62940902 0.168871 0 0 0
-0.34909999 0.64850301 0.172802 0 0 0
-0.34386 0.667849 0.17575 0 0 0
0.168891 0.91088998 0.21726801 0 0 0
0.180829 0.89436001 0.20630801 0 0 0
-0.32957 0.70884198 0.176645 0 0 0
-1.4218951 0.86311257 -0.30800983 255 0 0
-0.94692302 0.60379702 -0.0879554 0 0 0
-0.96144801 -0.078158997 -0.40742299 0 0 0
-1.2945521 -0.02686364 -0.59919262 255 0 0
-0.95437801 -0.074009798 -0.417299 0 0 0
-0.90993702 -0.190515 -0.467785 0 0 0
-0.552513 -0.53834599 -0.51866001 0 0 0
-0.59479696 0.067530103 0.16839668 255 0 0
-0.58463597 0.071634099 0.13943399 0 0 0
-0.696504 -0.87540603 -0.13053501 0 0 0
-0.68936199 -0.85620099 -0.130711 0 0 0
-0.705001 -0.88232899 -0.131622 0 0 0
-0.68175203 -0.83713901 -0.132368 0 0 0
-0.67582297 -0.81890601 -0.131377 0 0 0
-0.671103 -0.80100101 -0.12863 0 0 0
-0.66784602 -0.78345197 -0.124212 0 0 0
-0.91444916 -0.82419276 0.094762549 255 0 0
-1.0976765 -0.88948864 0.17995824 255 0 0
-0.67549902 -0.728585 -0.117392 0 0 0
-0.67635298 -0.71253002 -0.109533 0 0 0
-0.66507298 -0.719437 -0.0902953 0 0 0
-0.65687501 -0.72426701 -0.0803506 0 0 0
-0.66535801 -0.703888 -0.080120802 0 0 0
-0.7552979 0.16334583 0.57435912 255 0 0
-0.56623799 0.0068177199 0.17950401 0 0 0
-0.55483299 0.0282222 0.173264 0 0 0
-0.57556111 0.083530672 0.23703174 255 0 0
-0.51986998 0.067449197 0.167878 0 0 0
-0.52868599 0.072481103 0.158987 0 0 0
0.73503965 -0.68264186 0.42909947 255 0 0
0.537651 -0.62359202 0.30455101 0 0 0
0.53084999 -0.61139601 0.321623 0 0 0
0.537467 -0.60709101 0.31157699 0 0 0
0.58357096 -0.60146153 0.34280631 255 0 0
0.53063798 -0.59487998 0.32865199 0 0 0
0.66290599 -0.934542 0.26261801 0 0 0
0.66749501 -0.91941899 0.27272701 0 0 0
-0.425587 0.64827299 -0.32475799 0 0 0
-0.401445 0.65813601 -0.32842699 0 0 0
-0.39991799 0.652605 -0.31646201 0 0 0
0.6268068 -0.67548501 0.42248788 255 0 0
0.51643097 -0.63631397 0.33395201 0 0 0
0.50851101 -0.62389398 0.35033399 0 0 0
-0.378636 0.66843498 -0.33127299 0 0 0
-0.146788 0.79574901 0.237367 0 0 0
-0.135032 0.81828701 0.23021799 0 0 0
-0.34946999 0.61293697 0.161686 0 0 0
-0.337183 0.62888902 0.169018 0 0 0
-0.336528 0.64607799 0.175834 0 0 0
-0.332221 0.66484302 0.180107 0 0 0
-0.38267308 0.68097246 0.33096492 255 0 0
-0.30052999 0.72261399 0.188482 0 0 0
-0.49409604 0.72575885 0.69093531 255 0 0
-0.31996199 0.70458603 0.184036 0 0 0
0.50063801 -0.67730302 0.338323 0 0 0
0.493141 -0.66500998 0.354967 0 0 0
-0.58553201 -0.69660598 -0.40774801 0 0 0
-0.48326799 0.456747 0.114932 0 0 0
-0.47355101 0.475032 0.120706 0 0 0
-0.486119 0.47293299 0.127335 0 0 0
-0.78926998 -0.57343429 -0.45827654 255 0 0
-0.56474298 -0.64817798 -0.38937601 0 0 0
-0.325755 0.71001399 -0.34343499 0 0 0
0.51676202 -1.06577 0.34456199 0 0 0
0.50388902 -1.06709 0.350234 0 0 0
0.510979 -1.07924 0.324471 0 0 0
-0.70906597 -0.95292199 -0.145724 0 0 0
-0.721636 -0.95144099 -0.14767 0 0 0
-0.70636702 -0.96483898 -0.150315 0 0 0
-0.34644139 1.1657397 -0.54459304 255 0 0
-0.35966399 0.480721 0.00845866 0 0 0
-0.688896 -0.89642102 -0.12930299 0 0 0
-0.68294102 -0.87805098 -0.128539 0 0 0
-0.67660397 -0.85934299 -0.127818 0 0 0
-0.670443 -0.84112298 -0.127305 0 0 0
-0.66563398 -0.82265502 -0.124552 0 0 0
-0.66143298 -0.80516702 -0.121051 0 0 0
-0.7291593 -0.80393511 -0.037205104 255 0 0
-0.65667301 -0.77132499 -0.108942 0 0 0
-0.65594798 -0.75530601 -0.100816 0 0 0
-0.65616798 -0.73970902 -0.0907754 0 0 0
-0.65751499 -0.70886898 -0.069930799 0 0 0
-0.657363 -0.69307297 -0.060765799 0 0 0
-0.66558897 -0.68815398 -0.070743099 0 0 0
-0.66582698 -0.672647 -0.060516499 0 0 0
-0.90999085 -0.78382862 0.10073525 255 0 0
0.36855501 -0.96547502 -0.187906 0 0 0
-0.659446 -0.662606 -0.038698699 0 0 0
-0.65948403 -0.64696699 -0.028622899 0 0 0
-0.66635698 -0.62589902 -0.0307432 0 0 0
-0.66585898 -0.60986203 -0.0225913 0 0 0
-0.67031598 -0.611085 -0.033468999 0 0 0
-0.67273998 -0.59451997 -0.0255279 0 0 0
-0.58275938 -0.0027925614 0.22622623 255 0 0
-0.55663401 0.0026022701 0.18716501 0 0 0
-0.546188 0.0235439 0.182129 0 0 0
-0.53425199 0.045866899 0.17531 0 0 0
-0.51883531 0.10640459 0.1919806 255 0 0
-0.51466 0.093024299 0.15197501 0 0 0
0.52985501 -0.64404303 0.30673799 0 0 0
0.536686 -0.63972402 0.296839 0 0 0
-0.0330985 -0.823075 -0.478338 0 0 0
-0.045250237 -0.91954488 -0.5360477 255 0 0
-0.022283901 -0.81345099 -0.499089 0 0 0
-1.06261 0.287478 -0.106245 0 0 0
-1.06941 0.28316599 -0.096276298 0 0 0
-1.06006 0.30284801 -0.097802803 0 0 0
0.537121 -0.68312103 -0.19833399 0 0 0
0.53855997 -0.666987 -0.189367 0 0 0
0.538257 -0.68973303 -0.18244199 0 0 0
0.67425698 -0.88903499 0.15541001 0 0 0
0.67443401 -0.89518201 0.170038 0 0 0
0.66968 -0.91023302 0.159804 0 0 0
0.5528 -0.33019099 0.30804199 0 0 0
-0.395942 0.31727499 -0.016043101 0 0 0
-0.40914801 0.333408 -0.00205892 0 0 0
-0.40017 0.31209499 -0.00446798 0 0 0
-0.60943198 -0.70806199 -0.380229 0 0 0
-0.0954656 0.97948599 -0.52671403 0 0 0
0.541951 -0.71615899 0.24849901 0 0 0
0.54070401 -0.70060498 0.25656 0 0 0
-0.557401 -0.54375702 -0.50761098 0 0 0
0.0135245 0.65610099 0.094702996 0 0 0
0.0259926 0.670111 0.098145701 0 0 0
0.0218108 0.648045 0.102118 0 0 0
-0.097440802 -0.64551502 -0.80439901 0 0 0
-0.117743 -0.647273 -0.81229198 0 0 0
-0.106054 -0.63466901 -0.79784 0 0 0
-0.32270801 0.62936199 0.16761599 0 0 0
-0.33663499 0.61335301 0.159013 0 0 0
-0.404479 0.50080901 -0.046420701 0 0 0
-0.40103501 0.47829399 -0.040377099 0 0 0
-0.318993 0.662633 0.183402 0 0 0
-0.31479999 0.68147898 0.18776 0 0 0
0.50063199 -0.644418 0.35256299 0 0 0
0.50032902 -0.62785602 0.35951 0 0 0
0.492502 -0.63193297 0.36878201 0 0 0
-0.41931146 0.7616601 0.52811682 255 0 0
-0.86783397 0.54126298 -0.17388999 0 0 0
-0.85430902 0.54300499 -0.179975 0 0 0
-0.85803503 0.52819598 -0.189349 0 0 0
-0.213715 0.52091902 0.11858 0 0 0
-0.58264601 -0.62113899 -0.74796498 0 0 0
-0.578807 -0.61822599 -0.74118501 0 0 0
-0.559403 -0.62181598 -0.744008 0 0 0
-0.46880499 0.53039002 -0.188721 0 0 0
-0.8844164 -1.1170901 0.3568714 255 0 0
-0.66732597 -0.95713502 -0.139248 0 0 0
-0.68299699 -0.93384999 -0.13578101 0 0 0
-0.71799099 -0.97367102 -0.163351 0 0 0
-0.70271099 -0.97139102 -0.154506 0 0 0
-0.68027198 -0.91687697 -0.129869 0 0 0
-0.69279402 -0.91399997 -0.13316 0 0 0
-0.677333 -0.89974201 -0.124612 0 0 0
-0.67272401 -0.88187897 -0.12144 0 0 0
-0.66682202 -0.86353898 -0.120576 0 0 0
-0.71487314 -0.84244961 0.0010180045 255 0 0
-0.655101 -0.82652599 -0.11817 0 0 0
-0.65087402 -0.80896199 -0.11477 0 0 0
-0.647946 -0.79184198 -0.109424 0 0 0
-0.64668399 -0.77541 -0.101956 0 0 0
-0.64612699 -0.75950402 -0.093221404 0 0 0
-0.64659899 -0.74397701 -0.083061799 0 0 0
-0.6721524 -0.74418312 -0.049925797 255 0 0
-0.64805102 -0.71315902 -0.0621861 0 0 0
-0.64785999 -0.69737297 -0.053065401 0 0 0
-0.64949298 -0.68234497 -0.041305199 0 0 0
-0.65106797 -0.66736001 -0.029641099 0 0 0
-0.60084593 0.04491451 0.3039512 255 0 0
-0.53737801 0.018760299 0.190835 0 0 0
-0.52540398 0.041015901 0.18391301 0 0 0
-0.49639499 0.083554201 0.174807 0 0 0
-0.50529701 0.057743199 0.186497 0 0 0
-0.48859099 0.078082703 0.185451 0 0 0
-0.512999 0.062826 0.176287 0 0 0
0.44338799 -0.421572 0.47446001 0 0 0
0.51150101 -0.776452 -0.25659901 0 0 0
0.51635498 -0.78371102 -0.239068 0 0 0
0.50780398 -0.79820698 -0.25112399 0 0 0
-0.100231 0.99394399 -0.50274497 0 0 0
-0.105239 1.00772 -0.48363999 0 0 0
-0.43365601 0.40084299 0.042779598 0 0 0
-0.42834401 0.405637 0.0318827 0 0 0
-0.435321 0.41951999 0.049659099 0 0 0
-0.84937 -0.75803798 -0.29246101 0 0 0
-0.82989502 -0.74986899 -0.27415001 0 0 0
0.66972202 -0.90430403 0.14609499 0 0 0
-0.031337298 1.13574 -0.52978301 0 0 0
-0.030754199 1.12981 -0.51292098 0 0 0
-0.29594201 0.49898699 0.0418447 0 0 0
-0.63332802 -0.63127601 -0.31046301 0 0 0
0.66599202 -0.815862 0.28605101 0 0 0
0.66936803 -0.82586002 0.280186 0 0 0
0.67200702 -0.82085598 0.267784 0 0 0
-0.81506199 0.66963601 -0.117113 0 0 0
-0.91171902 0.89657801 -0.29250088 255 0 0
-0.83218998 0.66610599 -0.111822 0 0 0
-0.30543 0.66089499 0.18494301 0 0 0
-0.30227399 0.67898798 0.19117101 0 0 0
-0.322099 0.64468199 0.17672899 0 0 0
-0.30882001 0.64574599 0.175486 0 0 0
-0.29723501 0.69839001 0.194621 0 0 0
-0.70553899 -0.72050399 -0.253647 0 0 0
-0.70935702 -0.72667402 -0.241566 0 0 0
-0.69878697 -0.711869 -0.235375 0 0 0
-0.244698 0.54515803 0.017839899 0 0 0
-0.25544199 0.52564901 0.026182201 0 0 0
-0.984698 -0.127299 -0.34458101 0 0 0
-0.97981203 -0.145634 -0.34857401 0 0 0
-0.98366201 -0.13909 -0.34024799 0 0 0
-0.94008702 -0.13527501 -0.41590801 0 0 0
-0.7568 -0.78637099 -0.455744 0 0 0
-0.75814098 -0.76904202 -0.449377 0 0 0
-0.740861 -0.76964098 -0.453614 0 0 0
0.32471001 0.0196227 0.31571299 0 0 0
-0.76853502 0.58540398 -0.199912 0 0 0
-0.66231602 -0.90169799 -0.124386 0 0 0
-0.660115 -0.88481802 -0.118383 0 0 0
-0.70644557 -0.86452472 -0.0045254189 255 0 0
-0.650639 -0.84899098 -0.112754 0 0 0
-0.64419198 -0.83026898 -0.112369 0 0 0
-0.63966602 -0.81241 -0.109296 0 0 0
-0.636944 -0.79544199 -0.103695 0 0 0
-0.63605499 -0.77925003 -0.0955057 0 0 0
-0.63549101 -0.76333302 -0.086880803 0 0 0
-0.635759 -0.74761498 -0.077027701 0 0 0
-0.63694501 -0.73254198 -0.066069901 0 0 0
-0.63798499 -0.71709698 -0.0549252 0 0 0
-0.63795799 -0.70138699 -0.0456536 0 0 0
-0.89702356 -0.83954883 0.21811324 255 0 0
-0.53639883 -0.0042542778 0.20165354 255 0 0
-0.52695602 0.0151265 0.19739 0 0 0
-0.51630002 0.035930801 0.19207799 0 0 0
-0.49695 0.053396098 0.19592901 0 0 0
0.53582603 -0.65593898 0.28913701 0 0 0
0.87991995 -0.76139665 0.487665 255 0 0
0.46259499 -0.454191 0.457528 0 0 0
0.454083 -0.458029 0.46649399 0 0 0
0.51613802 -0.61976701 0.34089899 0 0 0
0.5158 -0.60324103 0.34780499 0 0 0
0.50821602 -0.60736901 0.35727 0 0 0
-0.44828901 0.34980699 0.060597401 0 0 0
-0.40807101 0.46741599 -0.060382899 0 0 0
-0.41143101 0.45068899 -0.069365703 0 0 0
-0.51437199 0.521056 -0.242842 0 0 0
0.37172699 -1.07551 -0.087963998 0 0 0
0.38576499 -1.07427 -0.078838199 0 0 0
-0.89102 -0.207352 -0.47775999 0 0 0
-0.88656098 -0.226244 -0.46956599 0 0 0
-1.349647 -0.422905 -0.86343467 255 0 0
-0.118925 0.55251902 0.099767603 0 0 0
-0.83182079 -1.6309121 -0.27745271 255 0 0
-0.28880399 0.67701101 0.193304 0 0 0
-0.28562301 0.69517499 0.199293 0 0 0
-0.27951801 0.71520901 0.201148 0 0 0
-0.44348899 0.33019799 0.055644501 0 0 0
-0.454615 0.345036 0.070795298 0 0 0
0.50312001 -0.43421 0.41170901 0 0 0
0.227759 0.69221401 0.142331 0 0 0
-0.17501 0.53022599 0.105698 0 0 0
-0.14944901 0.53669101 0.13002101 0 0 0
-0.656268 -0.74425399 -0.41346699 0 0 0
-0.991422 -0.080709197 -0.340056 0 0 0
-0.99192202 -0.064762004 -0.33243501 0 0 0
-0.99043697 -0.069825701 -0.34112501 0 0 0
-0.174189 0.043102 0.3739 0 0 0
-0.64923102 -0.90454799 -0.122023 0 0 0
-0.64590299 -0.88705701 -0.117287 0 0 0
-0.64340597 -0.87052298 -0.111703 0 0 0
-0.63775897 -0.85159302 -0.109636 0 0 0
