ply
format ascii 1.0
comment PCL generated
element vertex 1161
property float x
property float y
property float z
property uchar red
property uchar green
property uchar blue
element camera 0
property float view_px
property float view_py
property float view_pz
property float x_axisx
property float x_axisy
property float x_axisz
property float y_axisx
property float y_axisy
property float y_axisz
property float z_axisx
property float z_axisy
property float z_axisz
property float focal
property float scalex
property float scaley
property float centerx
property float centery
property int viewportx
property int viewporty
property float k1
property float k2
end_header
-0.90073502 0.471589 -0.228591 0 0 0
-0.96374702 0.38613001 -0.24434701 0 0 0
-0.95941699 0.400897 -0.23491099 0 0 0
-0.95432699 0.38961899 -0.25286701 0 0 0
-0.95686901 0.37436599 -0.26134399 0 0 0
-0.9864257 -0.17765723 -0.49606565 255 0 0
0.14098901 -0.92856699 -0.31209499 0 0 0
0.113225 -0.94145203 -0.300439 0 0 0
0.117554 -0.92255503 -0.307482 0 0 0
-0.26106799 0.79725498 -0.35222 0 0 0
-0.97683501 -0.070014 -0.381704 0 0 0
-1.1003807 -0.031498313 -0.43105599 255 0 0
-0.97107601 -0.065338299 -0.39221501 0 0 0
-0.255835 0.81400901 -0.34090301 0 0 0
-0.97153801 -0.049195901 -0.38562 0 0 0
-0.37230757 0.87582797 -0.38693303 255 0 0
-0.24968 0.84904301 -0.32098901 0 0 0
-0.95523 0.065580003 -0.30776799 0 0 0
-0.94118601 -0.22104999 -0.40257001 0 0 0
-0.122547 -0.219318 -0.49896199 0 0 0
0.207638 -0.075310998 -0.38757101 0 0 0
-0.252413 0.86876798 -0.31447101 0 0 0
0.423859 -0.054846998 0.091553301 0 0 0
0.42672899 -0.065466203 0.077438302 0 0 0
0.41841099 -0.058552001 0.0705228 0 0 0
-0.30248126 0.88759929 -0.34923175 255 0 0
-0.57341146 -0.68554318 -0.72006083 255 0 0
-0.90715802 0.65070099 -0.071916498 0 0 0
-0.379152 0.69405299 -0.213324 0 0 0
-0.087870501 0.166941 -0.081920601 0 0 0
-0.078045398 0.162848 -0.097245701 0 0 0
-0.089258797 0.167023 -0.103802 0 0 0
-0.94565803 0.081748404 -0.225572 0 0 0
-0.099146202 0.17102 -0.088480197 0 0 0
0.1369264 0.19697633 0.0428688 255 0 0
0.12673099 0.13685501 0.039955501 0 0 0
0.112146 0.137779 0.0337568 0 0 0
-0.14591999 0.186433 -0.13656101 0 0 0
-0.13724899 0.18121301 -0.151728 0 0 0
-0.148176 0.18580499 -0.15832999 0 0 0
-0.94178402 0.096389197 -0.21654999 0 0 0
-0.94196802 0.112688 -0.20969801 0 0 0
-0.94687903 0.130274 -0.20545299 0 0 0
0.103697 0.71027398 0.115233 0 0 0
-0.0188131 0.028580301 -0.34342501 0 0 0
-0.031228701 0.030973401 -0.34723899 0 0 0
-0.0203861 0.0435974 -0.33203399 0 0 0
-0.233347 0.12713 -0.39703301 0 0 0
-0.237038 0.140442 -0.38283899 0 0 0
-0.22601201 0.13765299 -0.37716299 0 0 0
-0.039574299 0.068249598 -0.30866101 0 0 0
-0.022814499 0.057227802 -0.31743401 0 0 0
-0.0350294 0.059284799 -0.32346901 0 0 0
-0.27092901 -0.59707898 -0.60579002 0 0 0
-0.28165099 -0.594441 -0.60951799 0 0 0
-0.270749 -0.58175099 -0.59466499 0 0 0
-1.0936199 0.152815 -0.102202 0 0 0
-1.0858999 0.13705701 -0.101029 0 0 0
-1.0268 0.258122 -0.210612 0 0 0
-1.02143 0.240288 -0.214351 0 0 0
-1.03075 0.275599 -0.20603999 0 0 0
0.136797 0.13275699 0.213458 0 0 0
-1.2301428 0.29088807 -0.090281188 255 0 0
-1.03302 0.292595 -0.20056801 0 0 0
-1.03334 0.30870801 -0.19384401 0 0 0
-1.03131 0.323919 -0.18576901 0 0 0
-1.0038875 0.094823919 -0.30294544 255 0 0
-0.84904402 0.65396702 -0.127481 0 0 0
-0.90836698 -0.214679 -0.45997101 0 0 0
0.41347599 -0.061764602 0.049290601 0 0 0
0.41347101 -0.0757754 0.035165001 0 0 0
0.40769899 -0.065911897 0.028126599 0 0 0
0.52170497 -0.706689 -0.23551901 0 0 0
-1.02878 0.339302 -0.17738 0 0 0
-1.02535 0.354325 -0.168375 0 0 0
-1.02063 0.36886999 -0.158657 0 0 0
-0.34936401 1.09981 -0.46345699 0 0 0
-0.41687226 1.1462121 -0.52220547 255 0 0
-0.301658 0.89461702 -0.26782301 0 0 0
-0.18260111 0.91784 -0.09054634 255 0 0
0.53907168 -0.72576129 -0.25439897 255 0 0
0.78177673 -0.72643679 -0.27673423 255 0 0
0.51845002 -0.65064198 -0.27119601 0 0 0
0.50902998 -0.640212 -0.28616399 0 0 0
-1.01473 0.38297001 -0.148215 0 0 0
-1.0075999 0.39663801 -0.13705499 0 0 0
-0.99907398 0.409702 -0.125202 0 0 0
-0.27072799 -1.03935 0.013464 0 0 0
-0.28049099 -1.0352499 0.00500345 0 0 0
0.58079398 -0.35784701 0.145412 0 0 0
0.580598 -0.34766299 0.168176 0 0 0
0.58182001 -0.364171 0.161109 0 0 0
-0.530828 -0.95767599 -0.264761 0 0 0
-0.51326001 -0.95462 -0.27667701 0 0 0
-0.24551 -0.60780197 -0.64041001 0 0 0
-0.24064511 -0.771227 -0.59926909 255 0 0
0.38278699 -0.00119896 0.193657 0 0 0
0.54577553 0.1855453 0.20714591 255 0 0
0.36892101 0.0135187 0.20098899 0 0 0
-0.27765501 -0.60979098 -0.63033903 0 0 0
0.27355799 0.80853897 0.152528 0 0 0
0.46619084 0.7670666 0.32533893 255 0 0
-0.52815723 0.94949734 -0.44048697 255 0 0
0.135727 0.62568498 0.193179 0 0 0
-0.63759172 0.98464972 -0.51300848 255 0 0
-0.24338 0.85369498 -0.33129299 0 0 0
-0.244157 0.87244999 -0.32372999 0 0 0
0.016705655 0.88652521 -0.098468058 255 0 0
-0.98767602 0.42199701 -0.111339 0 0 0
-0.31938499 0.862095 -0.246393 0 0 0
-0.309769 0.84127897 -0.25041899 0 0 0
-0.30299601 0.80190903 -0.26247501 0 0 0
-0.48461783 0.83863956 -0.41469222 255 0 0
-0.30272001 0.78323001 -0.27033001 0 0 0
-0.55217087 0.8815279 -0.4064762 255 0 0
0.84846658 -0.69500732 -0.28120002 255 0 0
0.53538698 -0.659863 -0.20596901 0 0 0
0.537009 -0.611139 -0.181915 0 0 0
-0.97825903 0.434681 -0.098827101 0 0 0
0.538894 -0.63898802 -0.16314501 0 0 0
0.425834 -0.87494099 -0.31231499 0 0 0
0.43131399 -0.85934001 -0.30184099 0 0 0
0.58856922 -1.0033232 -0.31900874 255 0 0
0.54506099 -0.59657198 -0.169845 0 0 0
0.57378799 -0.545551 -0.0591048 0 0 0
0.57374603 -0.55183601 -0.0441918 0 0 0
0.79795891 -0.58354992 -0.076310463 255 0 0
-1.04776 0.37551799 -0.0067670001 0 0 0
0.55363101 -0.58215702 -0.157894 0 0 0
-0.96763003 0.022474799 -0.33511201 0 0 0
-0.96269703 0.027600201 -0.34619901 0 0 0
-1.0022291 0.025686756 -0.36975828 255 0 0
-0.96002698 0.042592701 -0.33791101 0 0 0
-0.169283 -0.601291 -0.63248003 0 0 0
-0.181826 -0.60126197 -0.638183 0 0 0
-0.193166 -0.60531801 -0.61807001 0 0 0
-1.6650549 0.22525407 -0.62643623 255 0 0
-1.3240983 0.13001084 -0.47309327 255 0 0
-0.96362102 -0.0041979402 -0.36045799 0 0 0
0.077979103 -0.414368 -0.63638902 0 0 0
0.073197402 -0.43333599 -0.639355 0 0 0
0.065021001 -0.425587 -0.637438 0 0 0
-0.97247899 0.25430599 -0.29038101 0 0 0
-0.96502799 0.25843099 -0.29996499 0 0 0
-0.48054901 0.92012101 -0.301186 0 0 0
-0.49808708 0.96235782 -0.29051733 255 0 0
-0.97359997 0.44918299 -0.089158498 0 0 0
-0.97381002 0.46576601 -0.082591601 0 0 0
-0.97292697 0.48176399 -0.075033903 0 0 0
-0.97289002 0.49809301 -0.068036303 0 0 0
-0.228558 -0.60419601 -0.657139 0 0 0
-0.245675 -0.60635501 -0.66329598 0 0 0
-1.2167213 0.53126889 -0.18809114 255 0 0
0.559093 -0.56690401 -0.147467 0 0 0
0.46881673 0.73821521 0.2636452 255 0 0
-0.98096502 0.53336698 -0.058823802 0 0 0
-0.98304403 0.55044103 -0.053156201 0 0 0
-0.98321003 0.56675202 -0.046300899 0 0 0
-0.97995102 0.58185798 -0.037385501 0 0 0
-0.0083673391 -1.153437 -0.57045776 255 0 0
0.045483101 -0.83069599 -0.46954 0 0 0
0.056336701 -0.821132 -0.49028799 0 0 0
-1.1591771 0.71288365 -0.52460241 255 0 0
-0.26229599 -1.03172 -0.0070543298 0 0 0
0.220936 -1.1403 0.162927 0 0 0
0.208177 -1.13939 0.154148 0 0 0
0.21852601 -1.1440099 0.14104301 0 0 0
-0.54925698 -0.961752 -0.25298199 0 0 0
-0.249598 0.80669701 -0.37362999 0 0 0
-0.87840497 0.241629 -0.361045 0 0 0
-0.87959403 0.26516199 -0.368644 0 0 0
-0.97211999 0.59553802 -0.025525801 0 0 0
-0.27432892 0.83794099 -0.37081906 255 0 0
-0.92313653 0.25690293 -0.41795886 255 0 0
-0.896653 0.280678 -0.35803699 0 0 0
-0.88361299 0.282617 -0.364638 0 0 0
-0.240154 0.84066999 -0.35157701 0 0 0
-0.43537864 0.91810894 -0.44366398 255 0 0
-0.237611 0.87711 -0.33375901 0 0 0
-0.240272 0.89636701 -0.32740799 0 0 0
-0.245294 0.91656703 -0.32243401 0 0 0
-0.83692998 -0.74989599 -0.34748799 0 0 0
-0.7884562 -0.82295287 -0.339167 255 0 0
-0.90524799 0.447561 -0.259074 0 0 0
0.77683252 -0.64687139 -0.26147419 255 0 0
0.53164703 -0.65515101 -0.220119 0 0 0
-0.87774402 -0.152014 -0.512012 0 0 0
-0.17843901 -0.59514898 -0.706882 0 0 0
-0.15241352 -0.72383136 -0.67804748 255 0 0
-0.16241699 -0.59461701 -0.70052099 0 0 0
0.56143999 -0.52864599 -0.144374 0 0 0
0.56545502 -0.53568202 -0.12795299 0 0 0
0.56256902 -0.55125803 -0.137779 0 0 0
-0.57769501 -0.98882699 -0.19260199 0 0 0
-0.310579 0.74910301 -0.29098901 0 0 0
-0.098839298 0.563618 0.098509103 0 0 0
-0.253479 0.93770498 -0.319388 0 0 0
-0.96009898 0.60672599 -0.0117978 0 0 0
-0.87617803 0.31874299 -0.36010301 0 0 0
-0.87400901 0.33393401 -0.35203499 0 0 0
-0.86411202 0.3211 -0.367048 0 0 0
-0.87179297 0.349145 -0.34395701 0 0 0
-0.859604 0.351345 -0.350624 0 0 0
-0.86204499 0.33635899 -0.35916299 0 0 0
-0.40251699 0.68192297 -0.185138 0 0 0
-0.4498989 0.71332759 -0.22320582 255 0 0
-0.61485016 0.74271536 -0.34872475 255 0 0
0.428258 -0.86498499 -0.28962401 0 0 0
-0.93429101 0.33823001 -0.310583 0 0 0
-0.94404697 0.335033 -0.30232099 0 0 0
-0.96508199 0.037539698 -0.326866 0 0 0
0.0360565 0.126431 -0.0538643 0 0 0
0.26788101 -0.093718298 -0.31041399 0 0 0
0.277668 -0.097546801 -0.325569 0 0 0
0.26539299 -0.094546802 -0.33212301 0 0 0
-0.93999797 0.62255597 -0.0074832402 0 0 0
-0.110603 -0.16324 -0.48664799 0 0 0
-1.14329 0.18507899 -0.0410477 0 0 0
-0.236037 -0.46944201 -0.53426301 0 0 0
-1.08207 0.37031999 0.0501629 0 0 0
-1.07785 0.38501501 0.059379201 0 0 0
-0.99291199 -0.038389102 -0.30504 0 0 0
-0.99079698 -0.0224941 -0.29811701 0 0 0
-1.12562 0.27359101 0.0115753 0 0 0
-0.89467871 -0.55305421 -0.73745304 255 0 0
-0.77296901 -0.76960701 -0.44370601 0 0 0
-0.81917799 0.67218 -0.091654196 0 0 0
-1.01379 0.48839301 -0.00092452997 0 0 0
-1.00769 0.47646001 -0.018321799 0 0 0
-0.95044601 0.43958101 -0.19472399 0 0 0
-0.95628297 0.42548999 -0.205164 0 0 0
0.480762 -0.83664799 -0.253227 0 0 0
0.48362699 -0.84381902 -0.23789801 0 0 0
0.49721199 -0.824359 -0.236141 0 0 0
0.72269225 -0.97599322 -0.25977752 255 0 0
-0.87512797 0.30239499 -0.36665201 0 0 0
0.41129801 -0.89420098 -0.31408599 0 0 0
0.266381 0.75005299 0.139561 0 0 0
-1.2826047 0.74633622 -0.57176089 255 0 0
0.18941499 -0.91030401 -0.336164 0 0 0
-1.0382009 0.45595697 -0.015610291 255 0 0
-0.76178902 -0.75823599 -0.43047601 0 0 0
-0.74680698 -0.74862498 -0.41518101 0 0 0
-0.72427303 -0.74252802 -0.395769 0 0 0
-0.90121597 0.420315 -0.284536 0 0 0
-0.89785701 0.43542799 -0.27567899 0 0 0
-0.89614356 0.70871228 -0.21792278 255 0 0
-0.70426899 -0.73523003 -0.37771401 0 0 0
0.23137701 -1.14493 0.14981499 0 0 0
0.230892 -1.14721 0.128235 0 0 0
0.36994001 -1.0486 -0.123814 0 0 0
0.020659549 0.19567554 0.11475532 255 0 0
0.034090001 0.155224 0.119407 0 0 0
0.033644401 0.156462 0.097579204 0 0 0
-0.33829299 0.73185402 -0.25122401 0 0 0
-0.345559 0.72765797 -0.241548 0 0 0
-0.349987 0.71083498 -0.25215501 0 0 0
-0.96844101 -0.105454 -0.39052901 0 0 0
-0.97346997 -0.087470703 -0.38655701 0 0 0
-0.963314 -0.10026 -0.401373 0 0 0
-1.4083344 0.19139652 -0.50326759 255 0 0
-0.68429101 -0.72786897 -0.35963401 0 0 0
-0.8656804 0.5578422 -0.27331069 255 0 0
-0.33033401 0.72386098 -0.28278601 0 0 0
-0.84690303 0.53083199 -0.19673701 0 0 0
-0.90358889 0.61665815 -0.26214102 255 0 0
0.080997005 0.83438551 0.27348682 255 0 0
-0.62183803 0.74638152 -0.42508924 255 0 0
-0.41508001 0.71612197 -0.162843 0 0 0
-0.411621 0.69665599 -0.16863699 0 0 0
-0.85863602 -0.0030125701 -0.50141698 0 0 0
-0.85347301 0.0112854 -0.49219 0 0 0
-0.91874635 0.058301792 -0.59512752 255 0 0
0.49985 -0.52867103 0.40206099 0 0 0
0.57844102 -0.530316 -0.0486454 0 0 0
0.71523798 -0.22933567 0.68375582 255 0 0
-0.83690101 -0.75913203 -0.36835101 0 0 0
-0.56681401 -0.96484601 -0.241107 0 0 0
-0.47385475 0.94818264 -0.43365711 255 0 0
0.5760749 0.50281572 -0.067467667 255 0 0
-0.230617 0.86267602 -0.351816 0 0 0
-0.229515 0.88086098 -0.34307599 0 0 0
0.070609599 0.082278296 -0.186287 0 0 0
0.0712009 0.069336101 -0.200487 0 0 0
0.057399798 0.084482796 -0.192664 0 0 0
0.41342399 -0.216012 -0.296 0 0 0
0.413398 -0.200599 -0.28069201 0 0 0
0.23226701 0.71711099 0.167375 0 0 0
0.22278699 0.69567502 0.168228 0 0 0
-0.667036 -0.71890199 -0.34318501 0 0 0
-0.10076234 -0.98031157 -0.56016058 255 0 0
-0.0039172098 -0.78669 -0.591959 0 0 0
-0.410905 0.65977401 -0.183998 0 0 0
-0.403588 0.66396898 -0.193738 0 0 0
-0.413147 0.64214897 -0.19335 0 0 0
0.41576999 -0.88922799 -0.32561901 0 0 0
-0.407022 0.64665002 -0.203817 0 0 0
0.51639634 -1.0120481 -0.3902559 255 0 0
0.40273499 -0.90321398 -0.34163201 0 0 0
0.38722599 -0.92226601 -0.34419501 0 0 0
-0.86189002 0.30423799 -0.37290701 0 0 0
-0.78980303 0.66041797 -0.148802 0 0 0
-0.77504402 0.66219902 -0.154285 0 0 0
-0.77765697 0.64723402 -0.162994 0 0 0
-0.79236901 0.64560503 -0.157445 0 0 0
-1.04501 0.23052 -0.151366 0 0 0
-1.0930874 0.22603208 -0.17339794 255 0 0
-0.92396241 0.45278701 -0.2577799 255 0 0
-0.232803 0.90060401 -0.33693099 0 0 0
0.79150432 -0.82329601 0.20991589 255 0 0
0.67324698 -0.83449203 0.21240699 0 0 0
-0.237506 0.92087299 -0.33158401 0 0 0
-0.66081798 -0.70520598 -0.33254701 0 0 0
-0.244559 0.94144899 -0.32807001 0 0 0
-0.096889801 0.163076 0.043086 0 0 0
-0.083358102 0.16161001 0.049311899 0 0 0
-0.062681049 0.38570753 0.043029372 255 0 0
-0.027034841 0.17494139 0.030108988 255 0 0
-0.015904779 0.15914956 0.036327396 255 0 0
-0.017996799 0.155826 0.0147759 0 0 0
-0.96112198 -0.124715 -0.39325401 0 0 0
-0.955311 -0.120073 -0.40379199 0 0 0
-0.65593702 -0.69072503 -0.32268599 0 0 0
-0.65244102 -0.67557001 -0.31363899 0 0 0
-0.650217 -0.659908 -0.305224 0 0 0
-0.95551503 0.056820001 -0.328421 0 0 0
-0.96101302 0.051891901 -0.31792399 0 0 0
-0.95043999 0.0707445 -0.318827 0 0 0
-0.648399 -0.64424998 -0.29718199 0 0 0
-0.018180959 -0.47236261 -0.89204526 255 0 0
-0.52040827 0.82261115 -0.33837178 255 0 0
0.423098 -1.11593 0.28967199 0 0 0
-0.082757197 0.64690202 0.050404601 0 0 0
-0.094145097 0.65002501 0.045063201 0 0 0
-0.91071844 0.084398173 -0.46484861 255 0 0
-0.86271101 0.50407898 -0.22021601 0 0 0
-0.854388 0.51732302 -0.20826299 0 0 0
-0.34285101 0.74518299 -0.23190799 0 0 0
-0.34188399 0.76317602 -0.22340199 0 0 0
-0.350297 0.74096501 -0.22230899 0 0 0
-1.0081178 0.71265769 -0.27553067 255 0 0
-0.98984599 -0.085953102 -0.34776899 0 0 0
0.59105301 -0.50675702 -0.010849 0 0 0
0.58247101 -0.52103102 -0.024090599 0 0 0
-0.0065142298 0.152621 0.0212758 0 0 0
0.035676733 0.30171093 -0.013312523 255 0 0
-0.83468401 0.157646 -0.39835799 0 0 0
-0.82955003 0.17160501 -0.38831401 0 0 0
-0.82491499 0.160785 -0.40665001 0 0 0
-0.93535513 0.24212481 -0.51698041 255 0 0
-1.05469 0.442857 0.093469799 0 0 0
-1.0599101 0.43251401 0.074907601 0 0 0
0.25022799 0.802836 0.166895 0 0 0
-0.94893259 0.18470271 -0.49718267 255 0 0
-0.203454 -0.83369201 -0.44718999 0 0 0
-0.56873298 -0.63741797 -0.37024301 0 0 0
-0.57887399 -0.64028001 -0.36226201 0 0 0
-0.57169902 -0.61997402 -0.364858 0 0 0
-1.1159101 0.202209 -0.080876902 0 0 0
-0.108871 0.172616 -0.051369399 0 0 0
-0.0977327 0.17072301 -0.0666904 0 0 0
-0.108034 0.17540801 -0.073394999 0 0 0
-0.96773303 0.045681499 -0.24170201 0 0 0
-1.0178243 0.074975796 -0.23487017 255 0 0
-0.23187 -0.82029903 -0.47244099 0 0 0
-0.25479487 -1.0800588 -0.61410338 255 0 0
-1.07651 0.27891299 -0.086478397 0 0 0
-1.0732 0.29395899 -0.077590503 0 0 0
-1.06643 0.298381 -0.087517902 0 0 0
-1.03587 0.426943 0.0072373999 0 0 0
0.16955209 -1.3391417 -0.28156292 255 0 0
0.237341 -0.91569299 -0.46212301 0 0 0
0.22853801 -0.91051 -0.47044501 0 0 0
0.247291 -0.90723699 -0.483147 0 0 0
-0.36779201 -0.98445201 -0.099966399 0 0 0
0.376876 -0.92448902 -0.38637799 0 0 0
0.37700599 -0.93078601 -0.37249699 0 0 0
0.22103199 0.714526 0.174759 0 0 0
-0.092550606 -0.46038464 -0.83175212 255 0 0
0.526564 -0.76698101 -0.13933399 0 0 0
0.53165799 -0.774167 -0.120692 0 0 0
0.51902199 -0.78779697 -0.13761 0 0 0
0.67602134 -0.84467137 -0.17907025 255 0 0
-0.86643368 0.14369588 -0.39694801 255 0 0
-0.849042 0.140062 -0.39945099 0 0 0
-0.85614198 0.126614 -0.41027099 0 0 0
-0.74292499 0.66378403 -0.16314 0 0 0
-0.41863999 0.67404503 -0.16674 0 0 0
0.39932001 -0.90828902 -0.32918099 0 0 0
0.37513599 -0.93633902 -0.359247 0 0 0
-0.039851699 1.12565 -0.50324398 0 0 0
-0.96811998 -0.0823147 -0.39735401 0 0 0
0.32409701 -0.135271 -0.18147799 0 0 0
0.33261099 -0.141625 -0.174477 0 0 0
0.336045 -0.136894 -0.197027 0 0 0
-0.233766 0.83308798 -0.384325 0 0 0
-0.229333 0.85026997 -0.373456 0 0 0
-0.22525001 0.867881 -0.36295101 0 0 0
0.25896299 0.764018 0.15655001 0 0 0
0.25508201 0.78328198 0.16214401 0 0 0
-0.223212 0.88551599 -0.353358 0 0 0
-0.224457 0.90428299 -0.34610599 0 0 0
-1.1707951 0.3792192 -0.041371595 255 0 0
0.270603 0.0053219199 -0.0825193 0 0 0
0.282767 0.0024821199 -0.078340597 0 0 0
0.263735 0.0040836302 -0.088377498 0 0 0
0.273633 -0.93538201 -0.428844 0 0 0
0.25697401 -0.93658501 -0.41595101 0 0 0
0.26480001 -0.93019497 -0.43713799 0 0 0
-0.98176497 0.0069131101 -0.30176899 0 0 0
-0.98716497 -0.0066150702 -0.291493 0 0 0
-1.03977 0.463649 0.053641599 0 0 0
-1.0336601 0.47572199 0.061333898 0 0 0
-1.2029855 0.57455957 0.031767327 255 0 0
-0.96416801 0.31288999 -0.29290801 0 0 0
-1.280399 0.46361339 -0.57204562 255 0 0
-0.33338001 0.76695001 -0.23247001 0 0 0
-0.5708223 0.82124132 -0.4496567 255 0 0
-0.47653833 0.72961962 -0.26075867 255 0 0
-0.383834 0.70730603 -0.194186 0 0 0
0.37566701 -0.91818702 -0.40114999 0 0 0
-0.222023 -0.42789 -0.53333098 0 0 0
0.564448 -0.65898502 -0.115221 0 0 0
0.56627399 -0.64308101 -0.106334 0 0 0
0.56683999 -0.66567498 -0.099491499 0 0 0
0.56649399 -0.62642199 -0.099395797 0 0 0
0.56992197 -0.650065 -0.089791797 0 0 0
0.58251399 -0.51482499 -0.039105501 0 0 0
0.0250345 0.90637398 0.228405 0 0 0
0.0098484503 0.899463 0.234054 0 0 0
0.60558099 -0.52478701 0.0759895 0 0 0
0.61042398 -0.509597 0.0863676 0 0 0
0.604357 -0.530545 0.089922599 0 0 0
0.61443502 -0.47580701 0.0531989 0 0 0
0.61378503 -0.48178899 0.067160003 0 0 0
0.61146802 -0.49758801 0.058478899 0 0 0
1.069409 -0.57007486 0.10410048 255 0 0
0.61205298 -0.49977201 0.109001 0 0 0
0.608473 -0.51521897 0.099474497 0 0 0
0.60698402 -0.50673002 0.035192601 0 0 0
0.61220199 -0.49160701 0.044478901 0 0 0
0.607063 -0.51286799 0.049019098 0 0 0
0.57648498 -0.56462097 -0.0145867 0 0 0
0.58268613 -0.5712716 -0.0016191661 255 0 0
0.57363302 -0.580459 -0.023260299 0 0 0
-0.38767499 0.78052998 -0.45912901 0 0 0
-0.37808099 0.78400999 -0.467421 0 0 0
-0.18848702 0.92439884 -0.14672312 255 0 0
0.60687703 -0.47808301 0.0133581 0 0 0
0.60987002 -0.48487499 0.0288304 0 0 0
0.50949198 -0.83150297 -0.076260202 0 0 0
0.51090598 -0.83844298 -0.061322801 0 0 0
0.62639832 -0.88964355 -0.15305656 255 0 0
-0.076461002 0.16328999 -0.075380497 0 0 0
-0.05147 -0.60116601 -0.69422501 0 0 0
-0.0434536 -0.607539 -0.70987499 0 0 0
-0.055911601 -0.60477197 -0.7166 0 0 0
0.56167603 -0.30929601 0.027206 0 0 0
0.58945668 -0.30953822 0.032217603 255 0 0
0.56496698 -0.31967101 0.0127657 0 0 0
-0.73115098 -0.51418698 -0.025059201 0 0 0
-0.71449602 -0.52629203 -0.0297064 0 0 0
0.69499785 -0.77999902 0.23144393 255 0 0
0.66601998 -0.81241399 0.219743 0 0 0
0.65829998 -0.80503798 0.212677 0 0 0
-0.22896001 0.92453599 -0.34063399 0 0 0
0.1071464 0.39510888 -0.20503604 255 0 0
0.0059928298 0.118011 -0.146029 0 0 0
-0.0062333001 0.121268 -0.15258799 0 0 0
0.429028 -0.88726199 -0.229432 0 0 0
0.42835 -0.89293402 -0.215342 0 0 0
-0.058960501 1.04391 -0.51839697 0 0 0
0.518188 -0.77969003 -0.202198 0 0 0
0.51555598 -0.78508103 -0.18985599 0 0 0
0.512128 -0.80094498 -0.19860099 0 0 0
-0.92925 0.63676101 -0.0776655 0 0 0
-0.91570699 0.64732099 -0.063035302 0 0 0
0.54019201 -0.75378197 -0.122608 0 0 0
0.54221201 -0.76033002 -0.106824 0 0 0
-0.75498998 0.58726698 -0.20601401 0 0 0
0.7232241 -0.50298893 0.13879707 255 0 0
0.61249602 -0.473198 0.137814 0 0 0
0.608859 -0.49463299 0.142299 0 0 0
0.37312701 -0.91200602 -0.416226 0 0 0
0.39784613 -0.94763088 -0.4491303 255 0 0
-0.72893983 0.74694085 -0.39293647 255 0 0
0.122302 0.61440301 0.174633 0 0 0
-0.193994 0.885409 -0.57040101 0 0 0
-0.21157099 0.88226402 -0.57167 0 0 0
0.57087898 -0.941374 0.412126 0 0 0
-0.97897202 -0.06100734 -0.65098971 255 0 0
-1.08654 0.0067717661 -0.75278938 255 0 0
-0.85617799 -0.0447024 -0.534684 0 0 0
-0.36540899 0.727153 0.110569 0 0 0
-0.39272401 0.71277499 0.100883 0 0 0
-0.37226999 0.72091401 0.116973 0 0 0
-0.82209498 -0.74654198 -0.28414401 0 0 0
-0.48723701 0.10351 -0.53535903 0 0 0
-0.45219225 0.24589425 -0.68598372 255 0 0
-0.472866 0.117869 -0.523893 0 0 0
-0.20962724 0.84935319 -0.11824511 255 0 0
-0.31283799 0.817424 -0.245949 0 0 0
-0.674335 -0.64567602 -0.24918 0 0 0
-0.66926301 -0.64039397 -0.26019701 0 0 0
-0.66977602 -0.656932 -0.26749101 0 0 0
-0.47350401 0.13392501 -0.51423901 0 0 0
-0.56062901 0.80819798 -0.222424 0 0 0
-0.56213802 0.79696202 -0.241401 0 0 0
-0.145826 -0.00140081 -0.436281 0 0 0
-0.157078 0.0020390099 -0.44179201 0 0 0
-0.12201702 0.041969582 -0.46095929 255 0 0
-0.31049699 0.79773003 -0.252918 0 0 0
-0.120825 1.17652 -0.51849103 0 0 0
-0.12944899 1.1913199 -0.51395601 0 0 0
-0.117212 1.19505 -0.51516402 0 0 0
-0.40347901 0.73414499 -0.420513 0 0 0
-0.420753 0.74298298 -0.41494599 0 0 0
-0.41222101 0.74728101 -0.424036 0 0 0
0.35993901 -0.91181898 -0.434499 0 0 0
0.34735 -0.92900997 -0.42634299 0 0 0
0.26764801 -0.87937599 -0.52149802 0 0 0
0.28572401 -0.86453903 -0.51621097 0 0 0
0.29458699 -0.869618 -0.50784999 0 0 0
-0.35550299 0.69422299 -0.26348799 0 0 0
-0.59427398 -0.99093902 -0.18070599 0 0 0
-0.34394699 0.78235698 -0.216653 0 0 0
-0.33431801 0.748914 -0.24092101 0 0 0
-0.340422 0.80694699 -0.2199 0 0 0
0.25061601 -1.1345 0.22387999 0 0 0
0.243334 -1.12632 0.237193 0 0 0
0.232684 -1.12301 0.22849301 0 0 0
-0.71563798 -0.56597197 -0.165948 0 0 0
-0.695108 -0.57852501 -0.188319 0 0 0
-0.051341798 1.14122 -0.48743901 0 0 0
-0.94893599 0.42955601 -0.214819 0 0 0
-0.95386499 0.41525 -0.22470599 0 0 0
-0.86685801 -0.0315568 -0.51985103 0 0 0
-0.86351299 -0.0171529 -0.51121098 0 0 0
-0.85619199 -0.028786 -0.52771699 0 0 0
-0.87178999 0.084755398 -0.43984601 0 0 0
-0.86086899 0.087387502 -0.44746199 0 0 0
-0.99091691 0.17454825 -0.59605092 255 0 0
-0.85868663 0.3278431 -0.38891324 255 0 0
0.87914568 -0.62912178 0.059429452 255 0 0
0.59884 -0.53943598 0.064765103 0 0 0
0.57578301 -0.62414801 -0.0584962 0 0 0
0.57280999 -0.61755401 -0.074124202 0 0 0
0.57459402 -0.60762501 -0.0513453 0 0 0
0.96698129 -0.44973987 0.035934694 255 0 0
0.615107 -0.465639 0.074992597 0 0 0
0.64714462 -0.57748556 -0.045400586 255 0 0
0.572869 -0.59069997 -0.0451538 0 0 0
0.57270497 -0.600927 -0.067101799 0 0 0
0.6196143 -0.58532828 -0.066937581 255 0 0
0.575302 -0.55847597 -0.028421 0 0 0
0.65466601 -0.79468203 0.22749799 0 0 0
0.0177113 -0.061849099 -0.38890499 0 0 0
0.0266403 -0.066670798 -0.404369 0 0 0
0.51229203 -0.714809 -0.26351699 0 0 0
0.73952752 -0.77989268 -0.31804454 255 0 0
0.52854401 -0.68549502 -0.239305 0 0 0
-0.10017 0.123725 -0.27723101 0 0 0
-0.0980836 0.111923 -0.29139501 0 0 0
-0.110552 0.128546 -0.283851 0 0 0
0.53295898 -0.67000598 -0.22866 0 0 0
0.52069998 -0.700432 -0.25034499 0 0 0
-0.486747 -0.94329 -0.30895501 0 0 0
-0.50436592 -0.96576512 -0.30456227 255 0 0
-0.51393801 -0.942047 -0.30545899 0 0 0
0.24411599 0.92088401 0.16046099 0 0 0
0.238076 0.92747301 0.175835 0 0 0
0.62543809 -0.7848559 -0.20938811 255 0 0
0.51819003 -0.769113 -0.18124001 0 0 0
0.14582001 -0.0878914 -0.49357301 0 0 0
0.14720801 -0.100748 -0.50808901 0 0 0
0.21166874 0.18074903 -0.67101407 255 0 0
-0.63946354 0.33848256 -0.68456882 255 0 0
0.25005701 -0.869757 -0.53869498 0 0 0
0.44516709 -1.0729662 -0.8438611 255 0 0
0.22872201 -0.885306 -0.52922499 0 0 0
-0.683092 0.38657999 -0.379464 0 0 0
-0.54841852 0.45001888 -0.86949801 255 0 0
-0.55553854 0.38761377 -0.74357247 255 0 0
-0.323273 0.56672841 -0.42253324 255 0 0
-0.49362999 0.48085701 -0.249631 0 0 0
-0.025093799 -0.619807 -0.71530497 0 0 0
-0.95341599 -0.24564999 -0.35419101 0 0 0
-0.940516 -0.25977701 -0.36766699 0 0 0
-0.96189803 -0.225444 -0.35204399 0 0 0
-0.96717501 -0.207081 -0.348111 0 0 0
-0.312729 0.76165003 -0.27022499 0 0 0
-0.31113699 0.77947801 -0.261289 0 0 0
0.34720901 -0.138868 -0.212126 0 0 0
0.356291 -0.145028 -0.20527799 0 0 0
-0.103769 -0.821738 -0.47907701 0 0 0
-0.124349 -0.827268 -0.46689099 0 0 0
-0.11310907 -0.84636277 -0.50213027 255 0 0
0.61237597 -0.46904099 0.037531499 0 0 0
-0.91286433 0.087860398 -0.51632965 255 0 0
-0.85437399 0.075126201 -0.46450299 0 0 0
-0.84164202 0.641931 -0.14352299 0 0 0
-0.84649497 0.62802303 -0.153299 0 0 0
-0.99656254 0.05337847 -0.6266607 255 0 0
-0.86960101 -0.00561587 -0.49373701 0 0 0
0.185783 -0.035027899 -0.226693 0 0 0
0.45882043 0.26803172 -0.4989779 255 0 0
0.175567 -0.0300756 -0.23348799 0 0 0
0.61247498 -0.456622 0.144927 0 0 0
0.61179 -0.46260801 0.158842 0 0 0
1.1149024 -0.52062935 0.21214609 255 0 0
0.557136 -0.28349501 0.24568 0 0 0
0.55993301 -0.27665699 0.23395699 0 0 0
-0.41948599 0.65597701 -0.17505001 0 0 0
-0.427715 0.63374603 -0.173912 0 0 0
-0.41941699 0.63762498 -0.18302 0 0 0
-0.43042901 0.616283 -0.18353 0 0 0
-0.47968099 0.66287601 0.0488225 0 0 0
-0.46322101 0.67381901 0.065823004 0 0 0
-0.45715401 0.67833501 0.0553031 0 0 0
0.519575 -0.74684203 -0.187456 0 0 0
0.89859831 -0.8299982 -0.2726528 255 0 0
0.52116603 -0.753416 -0.17164899 0 0 0
-1.1997672 -0.22608446 -0.44514781 255 0 0
-0.317725 0.74484599 -0.281234 0 0 0
-0.97332698 -0.172694 -0.337724 0 0 0
-0.34715199 -0.90077901 -0.306171 0 0 0
-0.051035669 -1.2151303 -0.50141585 255 0 0
0.22067 -0.90996999 -0.361902 0 0 0
0.214927 -0.90164399 -0.36996299 0 0 0
-0.365358 -0.90429002 -0.29411501 0 0 0
-0.38696599 -0.92831701 -0.31795001 0 0 0
-0.96901703 -0.29798099 -0.201729 0 0 0
0.56257814 -0.72507942 -0.15997837 255 0 0
0.77356148 -0.79537451 -0.20548536 255 0 0
0.52883899 -0.73895001 -0.15949801 0 0 0
-1.0687616 0.19488615 -0.65631276 255 0 0
0.43025401 -0.85159302 -0.36592299 0 0 0
0.438371 -0.83660901 -0.353605 0 0 0
0.47592229 -0.8750819 -0.36264947 255 0 0
-0.90858501 0.55175298 -0.14840101 0 0 0
-1.1848963 0.74565172 -0.59487712 255 0 0
0.7592814 -1.2150414 0.61258471 255 0 0
-0.385658 0.72625703 -0.187324 0 0 0
0.014461342 0.71212745 0.32540706 255 0 0
-0.39045599 0.67279798 -0.213999 0 0 0
0.49920899 -0.826406 -0.185334 0 0 0
0.49588501 -0.83159298 -0.173049 0 0 0
0.48591799 -0.84624797 -0.187052 0 0 0
0.49102899 -0.84112799 -0.197652 0 0 0
-0.87203002 0.38124099 -0.33035401 0 0 0
-0.90153801 0.314594 -0.347092 0 0 0
-0.053710401 -0.82855803 -0.46607 0 0 0
-0.155725 -0.842502 -0.43406001 0 0 0
-0.176046 -0.84812403 -0.42207599 0 0 0
-0.16547699 -0.83838302 -0.44250199 0 0 0
0.81028444 -0.29915619 0.17702387 255 0 0
0.581357 -0.33737099 0.190055 0 0 0
0.64676732 -0.34281403 0.18524221 255 0 0
-0.195438 -0.85271502 -0.40998501 0 0 0
-0.20423099 -0.84753799 -0.418354 0 0 0
-0.184873 -0.842987 -0.43038601 0 0 0
0.59040803 -0.55989999 0.066621698 0 0 0
0.016348699 -0.0120045 -0.34774899 0 0 0
0.027462 0.00066477002 -0.33276299 0 0 0
0.033573601 -0.018551501 -0.340267 0 0 0
0.57140601 -0.63382202 -0.081967004 0 0 0
0.57509202 -0.64083701 -0.065425999 0 0 0
0.55608702 -0.56013203 -0.162958 0 0 0
0.55002898 -0.57529098 -0.17311101 0 0 0
0.55012602 -0.55763 -0.17595901 0 0 0
0.238451 -0.86664402 -0.54354298 0 0 0
0.95521504 -0.81966645 -0.39972278 255 0 0
-0.84066588 -0.78866094 -0.49314106 255 0 0
-0.636576 -0.57882202 -0.34504801 0 0 0
-0.61609697 -0.593615 -0.34422401 0 0 0
0.23093399 -0.862194 -0.55412698 0 0 0
0.2298412 -0.93925983 -0.58197439 255 0 0
-0.36280701 0.54357803 -0.030734301 0 0 0
-0.52332503 0.287774 -0.36487001 0 0 0
-0.30995169 0.47442585 -0.71784663 255 0 0
-0.72881502 -0.73402798 -0.25996599 0 0 0
-1.09184 0.22979601 -0.101926 0 0 0
-0.99396998 -0.085938603 -0.32773399 0 0 0
0.571711 -0.65644199 -0.075093202 0 0 0
0.526272 -0.66160399 -0.248785 0 0 0
0.61574697 -0.47202399 0.0897782 0 0 0
0.61447901 -0.48816001 0.081941098 0 0 0
0.614694 -0.45514199 0.095995598 0 0 0
0.25038099 0.742392 0.15790699 0 0 0
0.099488199 0.14147601 0.1945 0 0 0
-0.71874118 1.337239 -0.31828108 255 0 0
-0.41145501 1.02073 -0.39735901 0 0 0
-0.41428301 1.01547 -0.38510901 0 0 0
-0.228223 0.837919 -0.39498299 0 0 0
-0.040047031 0.0020802463 -0.5230456 255 0 0
0.40467 -0.92533797 -0.167739 0 0 0
0.48962051 -0.97316396 -0.21367778 255 0 0
0.419561 -0.913589 -0.154742 0 0 0
-1.0766799 0.39480799 0.074956298 0 0 0
0.105533 0.14452501 0.0485311 0 0 0
-1.11968 0.27952999 0.00026609999 0 0 0
0.52254999 -0.75986701 -0.156946 0 0 0
0.361707 -0.958004 -0.20797899 0 0 0
-0.86581498 0.041434798 -0.47101501 0 0 0
-0.85499102 0.060215201 -0.472067 0 0 0
0.344107 -0.97124499 -0.22780401 0 0 0
-1.3892164 0.40591866 -0.091445453 255 0 0
-1.13115 0.26054499 0.00035660999 0 0 0
-0.84656203 0.61228198 -0.160761 0 0 0
-0.91898888 0.66463965 -0.29165035 255 0 0
0.049688701 -0.81866699 -0.563833 0 0 0
0.0585353 -0.823843 -0.555475 0 0 0
0.045233399 -0.80735701 -0.54997599 0 0 0
0.586721 -0.599953 0.113814 0 0 0
0.58649802 -0.60625201 0.128603 0 0 0
0.58516401 -0.62215501 0.119967 0 0 0
0.348542 -0.96513599 -0.28951499 0 0 0
0.61144698 -0.44606799 0.165868 0 0 0
0.61120301 -0.43959901 0.151178 0 0 0
0.60868698 -0.42873999 0.17125601 0 0 0
0.459941 -0.87464702 -0.16759799 0 0 0
0.455358 -0.87941802 -0.15623 0 0 0
0.52271616 -0.96606296 -0.2011604 255 0 0
-0.78349799 -0.300482 -0.54137802 0 0 0
0.60689998 -0.42188099 0.15571301 0 0 0
0.60639501 -0.42121699 0.145289 0 0 0
-0.782094 -0.32766446 -0.64810014 255 0 0
-0.74711698 -0.30224499 -0.563694 0 0 0
-0.746795 -0.27912399 -0.57095098 0 0 0
-0.82749701 -0.13728 -0.55277503 0 0 0
-0.83959597 -0.139282 -0.54561502 0 0 0
-0.827981 -0.121044 -0.54642802 0 0 0
-0.68737799 -0.70633501 -0.28494999 0 0 0
-0.70895046 -0.69786441 -0.2781401 255 0 0
-0.68125302 -0.69239002 -0.274425 0 0 0
0.48792601 -1.10818 0.15901799 0 0 0
0.479251 -1.11094 0.15602 0 0 0
-0.86617398 0.098734699 -0.42994201 0 0 0
-1.0101571 0.26934072 -0.56542885 255 0 0
-0.98692447 0.23949392 -0.57731169 255 0 0
-1.10689 0.28830501 -0.0204586 0 0 0
-1.09998 0.30204499 -0.0094143199 0 0 0
0.54940498 -0.73964298 -0.109616 0 0 0
0.83467752 -0.84529012 -0.16279146 255 0 0
0.18166301 -0.066970102 -0.25422299 0 0 0
0.169346 -0.064192399 -0.260786 0 0 0
0.17617799 -0.043372899 -0.24696 0 0 0
-1.0162811 0.24539284 -0.65935546 255 0 0
-0.81479299 0.206367 -0.37990299 0 0 0
-0.5873276 1.0220048 -0.49529549 255 0 0
-0.59197372 -0.74521673 -0.64198279 255 0 0
-0.658059 -0.62730002 -0.58448601 0 0 0
-0.32226199 0.91074437 -0.4161472 255 0 0
-0.29231638 0.90955597 -0.40457544 255 0 0
-0.57514817 0.96409363 -0.60059947 255 0 0
-0.46430099 0.94276798 -0.30830401 0 0 0
-0.711487 0.47166601 -0.33548501 0 0 0
-0.49858195 -0.71122998 -1.042503 255 0 0
-0.54930401 -0.698502 -0.79886597 0 0 0
-0.97133398 0.57793999 0.039757401 0 0 0
-0.95462 0.589948 0.0490814 0 0 0
-0.96553099 0.58885902 0.0268449 0 0 0
-0.096112199 -0.60028601 -0.73610097 0 0 0
-0.088009603 -0.60659403 -0.75177801 0 0 0
-0.102865 -0.60639602 -0.75827199 0 0 0
0.36860999 -0.94656301 -0.33450401 0 0 0
0.37977201 -0.932625 -0.320308 0 0 0
0.36389601 -0.95128399 -0.32304299 0 0 0
-1.07415 0.34835899 0.0127818 0 0 0
-1.06603 0.35231301 0.0035735699 0 0 0
0.35585901 -0.96621001 -0.335462 0 0 0
0.39032999 -0.91814703 -0.30614299 0 0 0
0.384572 -0.92281598 -0.29552501 0 0 0
0.37509 -0.93738902 -0.30882299 0 0 0
0.46132699 -0.86578703 -0.229394 0 0 0
0.83409834 -1.1664954 -0.27552524 255 0 0
0.45676401 -0.871885 -0.219302 0 0 0
0.6837948 -1.0520169 -0.23144123 255 0 0
0.40194899 -0.90381902 -0.29119599 0 0 0
0.410947 -0.88977897 -0.278797 0 0 0
0.396191 -0.90853101 -0.28058001 0 0 0
0.421177 -0.87628597 -0.26608899 0 0 0
0.405898 -0.89435798 -0.26737201 0 0 0
-0.88256902 0.082042798 -0.43217599 0 0 0
-0.87787199 0.096124902 -0.42255899 0 0 0
0.50655901 -0.81155199 -0.173171 0 0 0
0.50395501 -0.81706601 -0.16084599 0 0 0
-0.99029082 0.12803055 -0.64467549 255 0 0
-0.846654 0.063021801 -0.480831 0 0 0
-0.066252701 -0.0077678398 -0.39006799 0 0 0
-0.363635 0.55423403 -0.0309675 0 0 0
-0.358585 0.57371902 -0.028221 0 0 0
-0.83897603 -0.123622 -0.53870898 0 0 0
-1.1944202 0.27321115 -0.92857772 255 0 0
-0.44707099 0.590222 -0.173485 0 0 0
-0.45320499 0.573753 -0.186085 0 0 0
0.577779 -0.30457899 0.17901599 0 0 0
0.579153 -0.31369501 0.181569 0 0 0
0.57908398 -0.31706399 0.164837 0 0 0
0.59053397 -0.55378598 0.052699398 0 0 0
0.86357433 -0.61786854 0.022361277 255 0 0
0.61440301 -0.44327801 0.068029404 0 0 0
0.615058 -0.44912699 0.082006402 0 0 0
0.54861569 -0.78546315 -0.17077203 255 0 0
-0.90867698 0.43260401 -0.26803601 0 0 0
-0.904782 0.40543401 -0.29366899 0 0 0
-0.743572 -0.73037899 -0.33717099 0 0 0
-0.23718999 0.61528599 0.0022416001 0 0 0
-0.230583 0.635683 0.00310056 0 0 0
-0.60376501 -0.694857 -0.448145 0 0 0
-0.60018998 -0.700149 -0.436957 0 0 0
-0.58912402 -0.67943001 -0.4438 0 0 0
-1.06394 0.184958 -0.134203 0 0 0
-1.05998 0.206562 -0.138815 0 0 0
0.56213301 -0.68095601 -0.109994 0 0 0
0.56305599 -0.68732798 -0.095126003 0 0 0
0.0130866 0.060583498 -0.28305501 0 0 0
0.00087728997 0.0636729 -0.28974399 0 0 0
-0.00374288 0.072566003 -0.27495399 0 0 0
-0.92793399 0.59437799 -0.111819 0 0 0
0.56729901 -0.67177302 -0.085651301 0 0 0
-1.1236399 0.198144 -0.0714937 0 0 0
-0.93009198 0.57881802 -0.120073 0 0 0
-0.92235899 0.56645101 -0.136215 0 0 0
-1.441133 0.47484341 -0.16207846 255 0 0
-1.1429403 0.27566043 -0.017809626 255 0 0
-1.1140701 0.28411499 -0.0107157 0 0 0
-0.14841101 -0.87535501 -0.36800599 0 0 0
-0.15826701 -0.87123698 -0.376459 0 0 0
-0.14421099 -1.0208026 -0.46386036 255 0 0
0.067118295 0.40260917 0.31550673 255 0 0
-0.077705994 -1.2402567 -0.57144719 255 0 0
-0.080339797 -0.86581898 -0.39601901 0 0 0
-0.057691801 -0.85816199 -0.40803999 0 0 0
-0.19083758 0.4026024 0.034491204 255 0 0
-0.68731898 -0.69716799 -0.26398501 0 0 0
-0.68358397 -0.6821 -0.25476199 0 0 0
-0.75231588 -0.6449663 -0.28957847 255 0 0
0.59600598 -0.764274 0.316246 0 0 0
0.61646903 -0.771393 0.31123501 0 0 0
0.61272198 -0.76771897 0.30354699 0 0 0
-1.03046 0.38012001 -0.059689801 0 0 0
-1.0163 0.39812699 -0.058322702 0 0 0
-0.0759148 0.71047503 0.049712598 0 0 0
-0.071208499 0.72982299 0.053349301 0 0 0
-0.69732898 -0.71841699 -0.29756701 0 0 0
-1.04836 0.302715 -0.139731 0 0 0
-1.04915 0.287009 -0.147109 0 0 0
0.56031102 -0.51430601 -0.14231101 0 0 0
-0.57455897 -0.67448002 -0.41556099 0 0 0
-0.586882 -0.68483001 -0.43238199 0 0 0
-0.584719 -0.69014001 -0.42093199 0 0 0
-0.96220398 0.411452 -0.21561199 0 0 0
-0.78094703 0.67255199 -0.136491 0 0 0
-0.76612502 0.673527 -0.141801 0 0 0
0.44481999 -0.88732702 -0.184182 0 0 0
0.220569 -0.85855901 -0.56072301 0 0 0
0.23493375 -0.98584408 -0.63615149 255 0 0
0.51898998 -0.80579698 -0.093617998 0 0 0
0.53437501 -0.79256898 -0.075017698 0 0 0
0.52275699 -0.811876 -0.074654303 0 0 0
0.47390899 -0.86079299 -0.15094399 0 0 0
0.46864101 -0.86583698 -0.14048 0 0 0
0.54304397 -0.77887303 -0.0641893 0 0 0
0.53333002 -0.79857898 -0.062063001 0 0 0
0.54356301 -0.78498399 -0.049272299 0 0 0
0.55230999 -0.76468801 -0.0511535 0 0 0
0.98397809 -0.9491654 -0.082634479 255 0 0
-1.08223 0.217066 -0.117198 0 0 0
-1.0736901 0.236763 -0.119234 0 0 0
0.56089401 -0.75034398 -0.0380846 0 0 0
0.560579 -0.75629503 -0.024115101 0 0 0
-0.83041698 0.26662701 -0.38330901 0 0 0
-0.84895998 0.26681 -0.38045499 0 0 0
-0.8458851 0.28791493 -0.39172426 255 0 0
0.55813098 -0.70867199 -0.091651797 0 0 0
0.56242597 -0.69336998 -0.081074297 0 0 0
0.55716902 -0.71453798 -0.077620201 0 0 0
0.48418376 -1.0020666 -0.25390279 255 0 0
0.38937831 -0.93217027 -0.24966238 255 0 0
0.56860501 -0.67835402 -0.069788098 0 0 0
0.174098 0.109471 0.052227601 0 0 0
0.18365499 0.104053 0.0589558 0 0 0
0.179867 0.101813 0.037562601 0 0 0
0.41830531 -0.85784125 -0.38815489 255 0 0
0.42797399 -0.84130198 -0.374475 0 0 0
-0.267021 -0.87930799 -0.35383001 0 0 0
-0.287321 -0.88493198 -0.341934 0 0 0
-0.28649467 -1.4751389 -0.65629292 255 0 0
-0.307587 -0.89057398 -0.33000299 0 0 0
-0.29607001 -0.87979001 -0.35026699 0 0 0
-0.6098637 -0.62328488 -0.37973684 255 0 0
-0.590707 -0.625983 -0.34816599 0 0 0
-0.60364503 -0.60114503 -0.346156 0 0 0
0.186562 -1.12957 0.179802 0 0 0
0.16071782 -1.332981 0.27478588 255 0 0
0.180189 -1.12093 0.193524 0 0 0
-0.87741703 0.658705 -0.052544702 0 0 0
-0.779773 0.67841202 -0.0963054 0 0 0
-0.45670301 -0.94853902 -0.176293 0 0 0
-0.90144598 0.298574 -0.35385901 0 0 0
-0.88940501 0.31683201 -0.3538 0 0 0
-0.22370601 0.84291202 -0.40647301 0 0 0
0.18687101 -0.075955503 -0.26861 0 0 0
0.174537 -0.073195301 -0.27507499 0 0 0
0.170285 0.095457897 -0.0050272802 0 0 0
0.16091 0.101102 -0.0117412 0 0 0
0.15541799 0.109213 0.0028349301 0 0 0
-0.65686601 -0.62050599 -0.59795702 0 0 0
-0.84441298 -0.105287 -0.53507799 0 0 0
0.57517201 -0.66345698 -0.0585174 0 0 0
-0.85028303 0.0261782 -0.483946 0 0 0
-0.84457898 0.0146427 -0.50072098 0 0 0
-1.1862156 0.43273914 -0.59982729 255 0 0
-1.1855547 0.41466966 -0.55961937 255 0 0
-0.94108498 0.286019 -0.32105899 0 0 0
-0.942554 0.302524 -0.31513 0 0 0
-0.93286097 0.30575499 -0.323423 0 0 0
-1.073258 0.2206078 -0.49562865 255 0 0
-0.93219769 0.28941226 -0.33025429 255 0 0
-1.169741 0.28169987 -0.58516318 255 0 0
-0.92789203 0.384159 -0.28635699 0 0 0
-0.465536 0.570306 -0.128371 0 0 0
-0.0808139 0.691073 0.046657201 0 0 0
-1.0656 0.419945 0.0662615 0 0 0
-1.07058 0.41116801 0.081159703 0 0 0
-1.202472 0.50040358 0.065724179 255 0 0
-0.436427 0.61167198 -0.17299899 0 0 0
-0.443396 0.60737097 -0.163147 0 0 0
0.58334702 -0.68404901 -0.00948215 0 0 0
0.67621356 -0.71035039 -0.0039655208 255 0 0
0.57643199 -0.70480102 -0.0068006702 0 0 0
0.58200502 -0.568106 0.039631501 0 0 0
-0.84352398 0.078464299 -0.47220501 0 0 0
0.51416701 -0.79085499 -0.17586701 0 0 0
0.61749345 -0.77515566 -0.1622249 255 0 0
0.67040098 -0.85168803 0.198047 0 0 0
0.66706598 -0.83933401 0.19063801 0 0 0
0.334113 0.0138522 0.3125 0 0 0
-0.341162 0.71710402 -0.39642301 0 0 0
-0.60912466 1.0491893 -0.51023906 255 0 0
-0.21275499 0.87662703 -0.38345399 0 0 0
-0.210206 0.89436603 -0.37378901 0 0 0
-0.86462402 0.0247977 -0.47763601 0 0 0
0.558074 -0.69655901 -0.119572 0 0 0
0.55911201 -0.70289099 -0.104687 0 0 0
0.512119 -0.80239701 -0.147797 0 0 0
0.51343298 -0.796727 -0.161854 0 0 0
-0.58480299 -0.59714597 -0.36248699 0 0 0
-0.56529099 -0.61497301 -0.37445199 0 0 0
0.43737167 -0.97217631 -0.33693272 255 0 0
0.37297499 -0.941517 -0.34596801 0 0 0
-1.07977 0.20009901 -0.122613 0 0 0
0.265582 0.033431102 -0.059106398 0 0 0
0.250494 0.033144299 -0.066395603 0 0 0
0.247069 0.043081202 -0.051888801 0 0 0
-0.209509 0.91269201 -0.36525699 0 0 0
-0.213131 0.93243599 -0.35936201 0 0 0
0.27149335 0.09057413 -0.048461989 255 0 0
0.260833 0.0423944 -0.046033099 0 0 0
0.24277601 0.052518401 -0.037586998 0 0 0
0.35658085 0.6591776 0.17266072 255 0 0
0.319318 0.49472424 0.14421007 255 0 0
0.281178 0.40213454 0.14556439 255 0 0
-0.96262699 0.211776 -0.28435099 0 0 0
-0.95976198 0.19847199 -0.273067 0 0 0
-1.05167 0.26498401 -0.141477 0 0 0
-1.04791 0.27048299 -0.15323 0 0 0
-0.96993703 0.0403849 -0.229289 0 0 0
-0.027127299 0.88338202 0.20999201 0 0 0
-0.99370301 -0.107151 -0.32313299 0 0 0
-1.7682543 -0.17064583 -0.53643924 255 0 0
0.52430803 -0.67840803 -0.256006 0 0 0
-0.95709997 0.063047603 -0.225509 0 0 0
0.60341501 -0.46984801 -0.0029587999 0 0 0
0.60121202 -0.49301499 0.0031232501 0 0 0
-0.21631099 -0.40818599 -0.53130299 0 0 0
-0.39640099 0.66818702 -0.20348001 0 0 0
0.611045 -0.5036 0.072409302 0 0 0
0.0213414 -0.0157235 -0.34691599 0 0 0
-0.84926498 0.089382097 -0.45421401 0 0 0
0.191385 -0.845303 -0.58258098 0 0 0
0.201493 -0.84986699 -0.57595098 0 0 0
0.180521 -0.863572 -0.57103401 0 0 0
-0.35287699 0.72351497 -0.23185501 0 0 0
-0.57696599 -0.0252102 -0.64454198 0 0 0
-0.57808697 -0.042319302 -0.65184301 0 0 0
-0.60072798 -0.039251398 -0.646963 0 0 0
0.123526 -0.84925199 -0.59182501 0 0 0
0.114655 -0.84405798 -0.60015899 0 0 0
0.13236099 -0.84180301 -0.61291802 0 0 0
-0.79798067 0.23178877 -0.17092855 255 0 0
-0.385382 0.340262 -0.058454599 0 0 0
0.51815182 -1.0032663 -0.23632193 255 0 0
0.37070501 -0.93720198 -0.26116499 0 0 0
-1.0739695 0.47604042 -0.29605144 255 0 0
-0.63539797 -0.73890197 -0.42950699 0 0 0
0.53332198 -0.60441297 -0.197155 0 0 0
0.96995515 -0.62136608 -0.32463753 255 0 0
0.19293401 -0.0708002 -0.247559 0 0 0
-0.4607358 -1.1076928 -0.27404773 255 0 0
-0.43804073 -1.1057341 -0.23816404 255 0 0
-1.07911 0.333958 0.0029154399 0 0 0
-0.635028 0.243403 -0.416026 0 0 0
-0.65168798 0.25148001 -0.406506 0 0 0
0.16476899 0.103522 0.0095626097 0 0 0
0.15506899 0.121246 0.038479399 0 0 0
0.15936901 0.111853 0.0241156 0 0 0
0.144596 0.12578499 0.031922501 0 0 0
-0.52114499 -0.60189003 -0.67510098 0 0 0
-0.52960366 -0.63300854 -0.68295723 255 0 0
-0.90796798 0.458103 -0.239815 0 0 0
-0.6536507 1.2843006 -0.51589447 255 0 0
0.42945799 -0.131018 0.00755462 0 0 0
0.43692601 -0.137089 -0.0072539598 0 0 0
0.42688999 -0.131947 -0.0140538 0 0 0
-0.109413 0.175814 -0.095178701 0 0 0
0.57598901 -0.61388201 -0.0365167 0 0 0
0.64552104 -0.59388745 -0.038000282 255 0 0
-0.75892401 -0.280992 -0.563739 0 0 0
-0.85370201 0.150858 -0.38129899 0 0 0
-0.85842299 0.28678101 -0.37824601 0 0 0
-0.99823868 0.35794032 -0.73847944 255 0 0
-0.82595801 0.22557899 -0.38025299 0 0 0
-0.88647801 0.347936 -0.33883399 0 0 0
-0.87091899 0.36493 -0.33672199 0 0 0
-0.92843843 -0.20832376 -0.82863945 255 0 0
-0.68475801 -0.63107598 -0.70216203 0 0 0
-0.69094598 -0.63450003 -0.68957502 0 0 0
-0.59349799 -0.53598303 -0.44491401 0 0 0
-0.89938003 0.32980001 -0.339026 0 0 0
-0.89976799 0.34603199 -0.33271199 0 0 0
-0.94521099 0.090687998 -0.20463499 0 0 0
-0.43518001 0.62962502 -0.164303 0 0 0
-0.442826 0.62548703 -0.15487 0 0 0
0.57694399 -0.698883 -0.020756301 0 0 0
0.56930202 -0.71948302 -0.018995199 0 0 0
0.50895101 -0.80614501 -0.18628 0 0 0
-0.039061531 0.41773736 0.12815885 255 0 0
-1.0261396 0.098577686 -0.2199147 255 0 0
0.212543 -0.078698501 -0.27799499 0 0 0
0.24545434 -0.0052457792 -0.29017419 255 0 0
0.212203 -0.077180102 -0.29985899 0 0 0
-0.21587645 0.42047673 0.0071144374 255 0 0
-0.26973799 0.25277099 -0.0460402 0 0 0
-0.257346 0.25249201 -0.0600584 0 0 0
0.55395401 -0.712125 -0.12913001 0 0 0
0.554425 -0.71833003 -0.114189 0 0 0
-0.81252903 0.227281 -0.38659701 0 0 0
-0.82136703 0.247031 -0.38473001 0 0 0
-0.85268801 -0.0143357 -0.51886898 0 0 0
0.58094299 -0.584373 0.0317384 0 0 0
0.583767 -0.59105998 0.0474011 0 0 0
0.58616602 -0.60836703 0.042109098 0 0 0
0.58373201 -0.60172099 0.0264482 0 0 0
0.55436999 -0.73038602 -0.086309597 0 0 0
-0.62040901 -0.70619297 -0.45471099 0 0 0
-0.607539 -0.68935102 -0.45918599 0 0 0
-0.62642401 -0.70468199 -0.462695 0 0 0
0.55493301 -0.72447097 -0.100297 0 0 0
-0.87133801 0.50053298 -0.21127699 0 0 0
-0.593283 -0.69144398 -0.377839 0 0 0
-0.3320927 0.77888489 0.19207168 255 0 0
-0.18938801 0.542732 0.0581159 0 0 0
-0.95033997 0.124607 -0.193515 0 0 0
-0.96339399 0.14690199 -0.194176 0 0 0
-0.966371 0.140183 -0.182026 0 0 0
-0.96985602 0.148821 -0.186626 0 0 0
0.54856497 -0.72344899 0.23337001 0 0 0
0.55246401 -0.70412302 0.225153 0 0 0
0.181236 -0.841829 -0.58961201 0 0 0
0.170687 -0.85940802 -0.57946801 0 0 0
0.197083 -1.1171401 0.20245101 0 0 0
-0.65125269 -1.0522486 -0.17166191 255 0 0
-0.639633 -0.99397898 -0.16583499 0 0 0
-0.62224197 -0.990834 -0.17755599 0 0 0
0.39292499 -0.165806 -0.221653 0 0 0
0.56928903 -0.28941199 0.218063 0 0 0
0.57050103 -0.28408501 0.20775799 0 0 0
0.037982401 -0.82151002 -0.63773203 0 0 0
0.0233493 -0.82064003 -0.62479597 0 0 0
0.17674699 0.12057 0.13104001 0 0 0
0.187185 0.116144 0.137721 0 0 0
0.184614 0.11524 0.11624 0 0 0
0.291875 0.071701199 0.160624 0 0 0
0.32032901 0.057854999 0.137427 0 0 0
0.329059 0.053123001 0.122482 0 0 0
0.319839 0.059032101 0.11564 0 0 0
-0.58594602 -0.13424499 -0.66076702 0 0 0
-0.59125799 -0.11568 -0.65689099 0 0 0
-0.573789 -0.115928 -0.66081703 0 0 0
-0.39509901 0.68610197 -0.194741 0 0 0
-0.76146299 0.631926 -0.174703 0 0 0
0.84239131 0.0033561937 0.50022578 255 0 0
0.69413173 -0.081235617 0.39977053 255 0 0
0.48383224 -0.15924513 0.31840336 255 0 0
0.53721899 -1.0865901 0.205045 0 0 0
0.99655062 -0.59735322 -0.098502778 255 0 0
-0.41683328 0.27536964 -0.43160719 255 0 0
-0.44156301 0.23275 -0.40765399 0 0 0
-0.445077 0.243037 -0.39294401 0 0 0
-0.85113901 0.33913699 -0.36669299 0 0 0
0.581164 -0.36689299 0.211555 0 0 0
0.302037 -0.114587 -0.158755 0 0 0
0.31141901 -0.120408 -0.152027 0 0 0
0.314767 -0.13074499 -0.166409 0 0 0
0.42526799 -0.89835501 -0.203079 0 0 0
0.17230199 -0.83765399 -0.59837002 0 0 0
0.161883 -0.85425299 -0.58770102 0 0 0
0.359056 -0.95161498 -0.27613899 0 0 0
-0.92894202 0.61091 -0.105362 0 0 0
0.6854232 -0.28138378 0.060045946 255 0 0
0.57711703 -0.341548 0.071224399 0 0 0
0.79801774 -0.23729271 0.037358139 255 0 0
-0.433081 0.36548701 -0.237038 0 0 0
-0.431905 0.34995201 -0.24854399 0 0 0
-0.76649201 -0.73320103 -0.28771901 0 0 0
-0.75184816 -0.83317012 -0.29629138 255 0 0
0.523476 -1.06563 0.33956099 0 0 0
0.64474535 -0.50843203 0.0073594237 255 0 0
-0.575746 -0.594643 -0.50725102 0 0 0
0.53638202 -0.58725297 -0.196794 0 0 0
0.542225 -0.58978701 -0.18527099 0 0 0
0.59350801 -0.51345098 0.00482364 0 0 0
0.57889402 -0.54281402 -0.0188097 0 0 0
0.54629999 -0.57597202 -0.180316 0 0 0
1.1506157 -0.51139933 0.1234296 255 0 0
0.61404401 -0.461191 0.109945 0 0 0
0.86453539 -0.46886179 0.14001542 255 0 0
-0.55886298 -0.66264403 -0.78670299 0 0 0
-0.54542899 -0.67960203 -0.79407501 0 0 0
-0.84192097 0.0296099 -0.49211201 0 0 0
0.07417234 0.24726093 -0.53755552 255 0 0
-0.44434801 0.64436197 -0.147745 0 0 0
-0.58835697 0.65232188 -0.23116794 255 0 0
-1.3826766 0.19298768 -0.35958391 255 0 0
-0.450674 0.60318899 -0.153441 0 0 0
-1.14018 0.167704 -0.046004798 0 0 0
-1.1481738 0.16174105 -0.037982929 255 0 0
-1.1476001 0.17874201 -0.028672401 0 0 0
-0.45266899 0.65672398 -0.135956 0 0 0
-0.16985394 0.63583362 0.36641148 255 0 0
-0.86232901 -0.76838702 -0.30634099 0 0 0
-0.86848003 -0.77323502 -0.295773 0 0 0
-0.47837001 0.25400001 -0.38292399 0 0 0
-0.48377299 0.26615301 -0.36628401 0 0 0
-0.471196 0.264238 -0.36276999 0 0 0
-0.45302799 0.58568102 -0.162928 0 0 0
-0.38208401 -0.92573899 -0.36024001 0 0 0
-0.33762223 -1.1876491 -0.37817964 255 0 0
-0.40674499 -0.934762 -0.32745901 0 0 0
-0.33269227 -1.533783 -0.49014917 255 0 0
-1.01889 0.232108 -0.21382999 0 0 0
-0.41192999 -0.93387598 -0.220799 0 0 0
-0.39961141 -0.97006327 -0.25024405 255 0 0
-1.2316214 0.26105094 -0.27680257 255 0 0
-1.0042918 0.44392723 -0.2825602 255 0 0
0.56935602 -0.71341598 -0.032956898 0 0 0
0.63499129 -0.75675088 -0.03888176 255 0 0
-0.83532202 0.57590902 -0.169303 0 0 0
-0.94299698 0.350624 -0.29491901 0 0 0
