ply
format ascii 1.0
comment PCL generated
element vertex 1163
property float x
property float y
property float z
property uchar red
property uchar green
property uchar blue
element camera 0
property float view_px
property float view_py
property float view_pz
property float x_axisx
property float x_axisy
property float x_axisz
property float y_axisx
property float y_axisy
property float y_axisz
property float z_axisx
property float z_axisy
property float z_axisz
property float focal
property float scalex
property float scaley
property float centerx
property float centery
property int viewportx
property int viewporty
property float k1
property float k2
end_header
0.55123401 -0.53246599 0.320274 0 0 0
0.55762202 -0.52799398 0.30997601 0 0 0
-0.29753801 0.50907302 0.0169539 0 0 0
-0.384431 -0.91506702 -0.38935 0 0 0
-0.40268701 -0.91858703 -0.377267 0 0 0
-0.43356705 -1.060132 -0.47869915 255 0 0
0.66423601 -0.89343297 0.115127 0 0 0
1.2715741 -0.79344332 -0.061957598 255 0 0
0.674187 -0.87444299 0.146034 0 0 0
0.64306903 -0.93438601 0.077949397 0 0 0
0.65000403 -0.94219202 0.098672204 0 0 0
0.63733298 -0.95545799 0.0836877 0 0 0
-1.05773 0.41444501 0.036293201 0 0 0
-1.0547301 0.42959499 0.0448617 0 0 0
-0.43811801 -0.92457002 -0.35307199 0 0 0
-0.43088123 -0.93946928 -0.34833702 255 0 0
-0.49126798 -1.2347224 -0.49088553 255 0 0
-0.032698698 0.584396 0.116612 0 0 0
-0.0141486 0.59602702 0.116389 0 0 0
-0.028501 0.57794201 0.126895 0 0 0
0.51476598 -0.38561299 0.39064199 0 0 0
-0.56122202 0.25895801 0.17226499 0 0 0
-0.42738199 0.0082963696 0.23626199 0 0 0
0.67532402 -0.90135199 0.18461099 0 0 0
0.675282 -0.90746498 0.199259 0 0 0
0.67743099 -0.87555301 0.21475901 0 0 0
-0.165907 -0.53750402 -0.518242 0 0 0
-0.23394278 -0.46369544 -0.89301473 255 0 0
-0.157546 -0.51702601 -0.52017897 0 0 0
0.75263768 -0.94099486 0.053904638 255 0 0
0.656865 -0.92764503 0.109502 0 0 0
-0.39417899 0.39202201 -0.083595797 0 0 0
-0.111815 0.97263402 -0.50377297 0 0 0
-0.17088944 1.0259089 -0.53078526 255 0 0
0.8741532 -0.9017815 0.087525301 255 0 0
-0.107624 0.83901501 0.22549801 0 0 0
-0.18844201 0.82192701 0.161448 0 0 0
-0.267919 0.76371098 0.179103 0 0 0
-0.189843 0.871436 -0.507631 0 0 0
0.182166 0.91322798 0.210933 0 0 0
-0.755548 0.62171 0.108745 0 0 0
-0.26982901 1.13287 -0.41630101 0 0 0
-0.57954001 0.574453 0.157832 0 0 0
-0.57230502 0.56663698 0.165635 0 0 0
-0.388735 -0.0155705 0.26615399 0 0 0
-0.0918997 0.119069 0.267885 0 0 0
-0.106733 0.114423 0.27601001 0 0 0
0.031896099 0.12706199 0.26481399 0 0 0
-0.82486302 0.56214899 -0.183635 0 0 0
-0.229026 -0.49154299 -0.53286302 0 0 0
-0.13132066 -0.48981515 -0.69965488 255 0 0
-0.10953325 0.48179263 0.64372271 255 0 0
-0.0012760817 0.18667643 0.41919303 255 0 0
0.015965 0.063865297 0.408472 0 0 0
0.14433999 0.098149002 0.32828799 0 0 0
-1.0139716 -0.33556345 -0.63834649 255 0 0
0.127775 0.071457803 0.388199 0 0 0
-0.17328726 0.4876717 -0.10224462 255 0 0
-0.40980801 0.432266 -0.081437297 0 0 0
-0.100012 0.71613401 0.0414529 0 0 0
-0.087542199 0.71357203 0.045047101 0 0 0
-0.092363298 0.69415301 0.0419567 0 0 0
-1.151392 -0.31124508 0.039522689 255 0 0
-0.94088101 -0.236562 -0.046141099 0 0 0
-0.059960037 0.68885285 0.15200762 255 0 0
-0.017743601 0.65887302 0.0773964 0 0 0
-0.94066697 -0.22057401 -0.037645198 0 0 0
-0.94851798 -0.19970299 -0.037661001 0 0 0
-0.65563202 -0.968108 -0.118885 0 0 0
-0.490657 0.59596199 -0.26690599 0 0 0
-0.50827998 0.57948297 -0.25327301 0 0 0
-0.41781101 0.62506998 -0.204399 0 0 0
-0.41280499 0.62278098 -0.21884599 0 0 0
-0.328255 1.12924 -0.44457999 0 0 0
-0.50209641 1.3636869 -0.32794479 255 0 0
-0.953462 -0.24653 -0.065214798 0 0 0
-0.94444001 -0.26790401 -0.062738597 0 0 0
-0.9487434 -0.16553958 -0.022599695 255 0 0
0.22988801 0.76424998 0.117784 0 0 0
0.10608976 0.87155867 0.45069617 255 0 0
0.232274 0.74021602 0.122832 0 0 0
-0.766114 0.60086203 -0.19145399 0 0 0
-0.81497359 0.64928502 -0.25582877 255 0 0
-0.76483899 0.61660302 -0.183393 0 0 0
-0.69972599 -0.57156199 -0.204477 0 0 0
-1.0938959 -0.82754707 -0.34728882 255 0 0
-0.68403703 -0.58980602 -0.209341 0 0 0
-0.94802386 0.83487177 -0.54862916 255 0 0
-1.0338153 -0.047731254 0.11138221 255 0 0
-1.3528695 -0.0045036916 0.35720843 255 0 0
-0.89870602 -0.042291 -0.00065692997 0 0 0
-0.89664 -0.024374099 0.00267071 0 0 0
-0.89343703 -0.0083730603 0.0109304 0 0 0
-0.90516901 -0.00552049 0.0061646402 0 0 0
-0.215179 0.83896798 -0.500211 0 0 0
-0.28923485 0.93045771 -0.49933288 255 0 0
-0.21009099 0.85072899 -0.479633 0 0 0
-0.43645784 0.082817174 -0.71719855 255 0 0
-0.470186 0.0242751 -0.58461601 0 0 0
-0.45405301 0.024224199 -0.58502102 0 0 0
-0.346129 -0.16933399 -0.618402 0 0 0
-0.3006267 -0.14541312 -0.70099425 255 0 0
-0.47734499 -0.425322 -0.57033098 0 0 0
-0.46135899 -0.44017601 -0.58094299 0 0 0
-0.47489101 -0.44032201 -0.57280898 0 0 0
0.257211 0.79562998 0.116124 0 0 0
0.26188901 0.80484998 0.116521 0 0 0
0.65959299 -0.90614301 0.104534 0 0 0
0.65687299 -0.902569 0.095056899 0 0 0
1.1007463 -1.2933246 -0.17650884 255 0 0
0.63736898 -0.925951 0.062624604 0 0 0
0.64739501 -0.91387099 0.078323603 0 0 0
0.55012 -0.54875398 0.31240201 0 0 0
0.54379702 -0.55322498 0.32274899 0 0 0
-0.54925078 0.55173534 0.18708315 255 0 0
-0.39358899 0.53983301 -0.041383199 0 0 0
-0.050082199 0.67346901 0.170463 0 0 0
-0.056550976 0.69740212 0.29490349 255 0 0
-0.062971704 0.67554498 0.168281 0 0 0
-0.0269715 1.10211 -0.53934699 0 0 0
-0.035966001 1.118 -0.54155499 0 0 0
0.68180525 -1.45994 0.094703592 255 0 0
0.483879 -1.10698 0.13481501 0 0 0
0.51145601 -1.0946 0.131687 0 0 0
-0.11756 0.94164699 -0.57113898 0 0 0
-0.104306 0.95492399 -0.56827497 0 0 0
-0.106505 0.951478 -0.55457598 0 0 0
-0.88581735 0.34412372 -0.24041894 255 0 0
0.53172398 -0.45675901 0.372392 0 0 0
0.52432299 -0.460949 0.38198501 0 0 0
-0.59661263 -0.99742138 -0.21823317 255 0 0
-0.60360998 -0.97304398 -0.21776 0 0 0
-0.58520901 -0.96892798 -0.229441 0 0 0
0.53701502 -0.49142301 0.36133999 0 0 0
0.64868855 -0.50593513 0.36910632 255 0 0
0.55092502 -0.49931401 0.33442 0 0 0
0.16899644 0.57640034 -0.50322521 255 0 0
-0.017239301 0.0738509 -0.281165 0 0 0
-0.030617001 0.075126603 -0.28758001 0 0 0
-0.39708999 0.403804 -0.0973958 0 0 0
-0.81158799 0.519292 -0.260113 0 0 0
-0.95678633 0.85947591 -0.56943977 255 0 0
-0.87369114 0.64492524 -0.40979183 255 0 0
0.21890099 -0.079284601 -0.38087299 0 0 0
0.22668301 -0.085470997 -0.39599001 0 0 0
0.215423 -0.081433602 -0.40275899 0 0 0
0.67016298 -0.91635799 0.17443199 0 0 0
0.66935301 -0.92218101 0.188206 0 0 0
0.67756301 -0.89181203 0.20783301 0 0 0
0.51002002 -0.269108 0.35280401 0 0 0
1.1166788 -0.020640628 0.68945491 255 0 0
0.49760601 -0.25478601 0.36657801 0 0 0
0.50581998 -0.27395701 0.36442599 0 0 0
0.52473903 -0.421583 0.382447 0 0 0
0.70577639 -0.38990921 0.51521826 255 0 0
0.531048 -0.56207299 0.343171 0 0 0
0.53772497 -0.55774701 0.33319399 0 0 0
0.53140599 -0.54559702 0.350557 0 0 0
0.51756901 -0.425778 0.39222801 0 0 0
0.57489461 -0.61347401 0.28069121 255 0 0
0.549541 -0.61448801 0.28354499 0 0 0
0.58882117 -0.63975203 0.2936565 255 0 0
0.50493097 -1.0220799 -0.043823201 0 0 0
0.48647499 -1.0394599 -0.047395401 0 0 0
0.65147793 -1.2122246 -0.24451327 255 0 0
-0.110157 0.074669197 -0.346223 0 0 0
-0.121593 0.077843197 -0.35142601 0 0 0
-0.110069 0.090612702 -0.33693999 0 0 0
0.48755601 -0.82723999 -0.254307 0 0 0
0.493875 -0.81145298 -0.26653299 0 0 0
0.49635401 -0.81809402 -0.25097299 0 0 0
-0.70142698 -0.76512098 -0.47456199 0 0 0
-0.80383098 -0.73999202 -0.30155 0 0 0
-0.6746847 -1.0833926 -0.29597169 255 0 0
-0.167696 0.90212202 -0.49150899 0 0 0
-0.178122 0.88585001 -0.503977 0 0 0
-0.41435701 0.764566 -0.16649701 0 0 0
-0.20543399 0.81248498 0.164489 0 0 0
-0.38064063 0.022133406 0.29136294 255 0 0
-0.46950248 0.28186029 0.46609378 255 0 0
-0.34980401 0.0091458801 0.26705 0 0 0
-0.81680602 0.58149201 0.16446801 0 0 0
-0.55853897 0.58850098 0.13011999 0 0 0
-0.85099798 -0.14170299 -0.53845602 0 0 0
-0.82027 0.175152 -0.39717001 0 0 0
-0.23310199 1.17586 -0.44034901 0 0 0
-0.226979 1.16605 -0.434791 0 0 0
-0.31903374 0.16014925 0.14018194 255 0 0
-0.31399301 0.14503101 0.141285 0 0 0
-0.34035227 0.09131933 0.30750668 255 0 0
0.045582 0.13013101 0.25465 0 0 0
-0.040146999 0.068874501 0.390259 0 0 0
-0.0090032602 0.080467701 0.37713999 0 0 0
0.046934798 0.075121097 0.39536601 0 0 0
0.031175399 0.069408298 0.40151399 0 0 0
0.13116001 0.095798597 0.33934799 0 0 0
0.22788106 0.32237864 -0.84537578 255 0 0
0.114486 0.068825699 0.399088 0 0 0
0.42889446 0.33916193 0.36938375 255 0 0
0.25121599 0.079973496 0.28679299 0 0 0
0.25946799 0.070914201 0.30010399 0 0 0
-0.86904317 -0.39910781 -0.67224443 255 0 0
-0.768269 -0.30787101 -0.54805201 0 0 0
-0.93693697 -0.25782701 -0.044890199 0 0 0
0.072278798 0.038416501 0.45102501 0 0 0
0.07612706 0.4635126 0.73475605 255 0 0
0.061116774 0.16203924 0.55485886 255 0 0
-0.92741901 -0.13499799 -0.0083367201 0 0 0
-0.088245399 1.03776 -0.57628399 0 0 0
-0.66667497 -0.64172202 -0.039857201 0 0 0
-0.88156646 -0.70431411 0.024603579 255 0 0
-0.66631502 -0.65719801 -0.0501648 0 0 0
-0.25079599 0.80152702 -0.41104999 0 0 0
-0.52003384 0.98894596 -0.43819162 255 0 0
-0.89602202 -0.066035397 0.0073752999 0 0 0
-0.90219003 -0.0845173 0.0061645498 0 0 0
-0.890284 -0.047417302 0.0088659804 0 0 0
-0.96623504 -0.054491624 0.10421177 255 0 0
-0.88340098 -0.0122213 0.0177164 0 0 0
-0.28551301 0.79682201 -0.51300901 0 0 0
-0.262761 0.80603999 -0.51677603 0 0 0
-0.262508 0.801027 -0.50396198 0 0 0
-1.0352296 -0.071467929 0.19518945 255 0 0
-0.202062 -0.521779 -0.51727098 0 0 0
-0.197294 -0.50270098 -0.51402998 0 0 0
-0.190567 -0.524845 -0.51217997 0 0 0
-0.0446386 1.0684201 -0.55812597 0 0 0
-0.0351029 1.06296 -0.54468298 0 0 0
-0.047919799 1.05397 -0.560381 0 0 0
-0.54297799 0.56640202 -0.248107 0 0 0
-0.56547815 0.53507447 -0.18450455 255 0 0
-0.52350515 0.56054962 -0.31456017 255 0 0
-0.91354656 0.40831718 0.17602228 255 0 0
-0.40712699 0.483091 -0.053227 0 0 0
-0.499396 0.64235997 -0.31449899 0 0 0
-0.46459901 0.64858103 -0.32478601 0 0 0
-0.42559376 0.80974317 -0.071336932 255 0 0
0.74645281 -0.72513962 0.49636036 255 0 0
0.52867198 -0.43940499 0.377707 0 0 0
0.52147001 -0.44358101 0.38742301 0 0 0
0.55837101 -1.0420001 0.054620702 0 0 0
0.55936599 -1.0484101 0.069183797 0 0 0
0.53120899 -1.05783 0.044434398 0 0 0
-0.40530699 0.38782099 -0.0261747 0 0 0
-0.40824801 0.407121 -0.020167099 0 0 0
-0.73268658 0.42510498 -0.10672503 255 0 0
0.65093601 -0.96044397 0.14134 0 0 0
0.657175 -0.94567001 0.15238 0 0 0
0.70377052 -0.98926383 0.14856224 255 0 0
0.66367799 -0.93099803 0.163386 0 0 0
0.662889 -0.936849 0.177214 0 0 0
0.65591103 -0.95144397 0.16529 0 0 0
0.57414699 -0.60677701 0.220468 0 0 0
0.86273181 -0.64028877 0.28080881 255 0 0
0.57256299 -0.589926 0.226614 0 0 0
-0.45628348 -1.1617535 -0.42399499 255 0 0
-0.46954 -0.92634302 -0.32844201 0 0 0
-0.9809044 0.016777074 -0.12443765 255 0 0
-1.1169686 0.032082386 -0.11480988 255 0 0
-0.95261699 0.034238499 -0.134523 0 0 0
-0.22468001 0.100803 -0.427035 0 0 0
-0.236818 0.103753 -0.431297 0 0 0
-0.228963 0.114111 -0.41216299 0 0 0
0.69966519 -1.3146678 -0.17865701 255 0 0
0.6239571 -1.1638438 -0.068664305 255 0 0
0.49721 -1.06085 0.00050902 0 0 0
0.557648 -1.03484 0.041620199 0 0 0
0.52989101 -1.0512201 0.029952699 0 0 0
-0.21439999 0.84768897 -0.46429601 0 0 0
-0.203922 0.86272502 -0.45100099 0 0 0
0.537332 -0.57408601 0.32573801 0 0 0
0.63273549 -0.60511309 0.39549896 255 0 0
0.70141578 -0.5821104 0.43426001 255 0 0
0.50053298 -0.69371802 0.33109999 0 0 0
0.54707402 -0.6978029 0.38417578 255 0 0
0.55435801 -0.593126 0.279369 0 0 0
0.54895598 -0.597745 0.29015601 0 0 0
0.64374602 -0.97516298 0.129407 0 0 0
0.64377099 -0.98108202 0.144088 0 0 0
-0.89463902 -0.299068 -0.417896 0 0 0
-0.90653098 -0.285557 -0.40388101 0 0 0
-0.902399 -0.279504 -0.415351 0 0 0
-0.63056999 -0.65395802 -0.32205799 0 0 0
-0.630687 -0.63732302 -0.314906 0 0 0
-1.1427951 -0.59757322 -0.80762327 255 0 0
-0.98233801 0.42667001 -0.122406 0 0 0
-1.0891852 0.51452643 -0.16132119 255 0 0
-0.50157201 0.244115 -0.40251401 0 0 0
-0.47717518 0.41405421 -0.55683017 255 0 0
-0.46628356 0.39443141 -0.51251996 255 0 0
-1.3873128 0.57355088 -0.15181021 255 0 0
-0.29306301 0.042746201 0.26440701 0 0 0
-0.122742 0.108212 0.282096 0 0 0
-0.138678 0.101624 0.28806999 0 0 0
-0.0242921 0.075090103 0.384094 0 0 0
0.14823499 0.129287 0.219979 0 0 0
0.13085 0.13233601 0.224337 0 0 0
-0.97215497 0.439266 -0.109289 0 0 0
-0.96702498 0.44421399 -0.120391 0 0 0
0.117582 0.093303598 0.34967101 0 0 0
0.10565586 0.11157834 0.43547744 255 0 0
-1.0144101 0.00077250693 -0.490538 255 0 0
-0.0053025698 0.0284616 0.45902601 0 0 0
-1.02608 0.44653001 0.00593415 0 0 0
-1.02442 0.46224499 0.01385 0 0 0
-1.0226206 0.46782783 0.0014623792 255 0 0
0.22803199 0.078451604 0.31979999 0 0 0
0.30119699 0.20982228 0.35813928 255 0 0
0.0490922 0.039787099 0.448755 0 0 0
0.033980601 0.0344125 0.45591199 0 0 0
0.0420742 0.0276349 0.46528599 0 0 0
-0.89497501 -0.090108402 0.017283199 0 0 0
-0.95579368 -0.066780299 0.081489451 255 0 0
-0.92013329 -0.058104649 0.060134612 255 0 0
-0.87807399 -0.034346599 0.0221956 0 0 0
-1.060459 -0.084575579 0.26148602 255 0 0
-1.1022621 0.17597109 -0.13848543 255 0 0
-1.2845119 0.075893842 -0.43165329 255 0 0
-1.0879806 0.15381975 -0.13628118 255 0 0
-0.199835 0.85665298 -0.511917 0 0 0
0.26815701 0.768107 0.147797 0 0 0
0.270345 0.757797 0.136144 0 0 0
0.276667 0.77146 0.137889 0 0 0
0.0041904347 0.61450267 0.15249561 255 0 0
0.034127101 0.60506397 0.13446601 0 0 0
-1.1971046 0.21860714 0.055863377 255 0 0
-0.415454 0.46243101 -0.092465699 0 0 0
-0.411771 0.43768099 -0.093369603 0 0 0
-0.49128482 0.50166118 0.0034384553 255 0 0
-0.40561101 0.45757499 0.055244301 0 0 0
-0.41500399 0.455255 0.063682802 0 0 0
-0.425226 0.44077599 0.049529199 0 0 0
0.52134001 -0.49948201 0.37992799 0 0 0
-0.26037198 1.063573 -0.54363978 255 0 0
0.57298708 -0.41001382 0.38291249 255 0 0
0.53220999 -0.39458001 0.36588499 0 0 0
0.52629399 -0.39919299 0.37640801 0 0 0
0.61682302 -0.99496597 0.085048601 0 0 0
0.90236944 -1.2071401 0.00014049074 255 0 0
0.60002702 -1.01336 0.081076302 0 0 0
-0.103074 1.02555 -0.474325 0 0 0
-0.094161101 1.0291899 -0.48305699 0 0 0
-0.101857 1.04371 -0.46556199 0 0 0
0.46733999 -0.56113499 0.43164501 0 0 0
0.68122965 -0.63985598 0.58737928 255 0 0
-0.48120099 0.60095513 0.0092501761 255 0 0
-0.54594392 1.024672 -0.17113835 255 0 0
-0.36004901 0.68515301 -0.34438401 0 0 0
-0.36115599 0.68055803 -0.33074099 0 0 0
-1.1957467 0.47337532 -0.42310867 255 0 0
-1.01258 0.33763301 -0.21698099 0 0 0
-1.1006753 0.34999296 -0.27692667 255 0 0
-0.35112023 0.83051795 -0.2586123 255 0 0
-0.37467 0.50091499 -0.0209656 0 0 0
-0.39538878 0.54405344 0.049036968 255 0 0
-0.36810899 0.493689 -0.0120169 0 0 0
-0.25280401 0.52006298 0.037663098 0 0 0
-0.23123901 0.525985 0.048588201 0 0 0
-0.42837808 0.64203769 0.30079943 255 0 0
0.48429 -0.63588399 0.37794 0 0 0
0.75112212 -0.69693178 0.57992709 255 0 0
0.47657001 -0.623532 0.394494 0 0 0
-0.117374 0.95572698 -0.51531601 0 0 0
1.1322352 -1.28629 -0.029938651 255 0 0
0.63369399 -0.994964 0.13062701 0 0 0
-1.00947 0.352824 -0.208189 0 0 0
-1.0132101 0.305904 -0.23100799 0 0 0
-0.0202069 -0.78602499 -0.55740499 0 0 0
-0.078821965 -1.1701155 -0.70093745 255 0 0
-0.11357772 -1.1488173 -0.66366422 255 0 0
0.555466 -0.72733903 0.13700899 0 0 0
0.55555201 -0.73839599 0.11538 0 0 0
0.55834699 -0.72201598 0.124656 0 0 0
0.62059802 -1.00788 0.115697 0 0 0
-0.95971602 -0.17921799 -0.36476699 0 0 0
-0.95628601 -0.173427 -0.37665799 0 0 0
-1.2044913 -0.23468708 -0.48657483 255 0 0
0.69981378 -0.48479003 0.54961598 255 0 0
0.59431064 -0.4551858 0.47620565 255 0 0
0.49856099 -0.45583001 0.41584799 0 0 0
0.71098316 0.30158561 -0.13800268 255 0 0
0.38272899 -0.16412 -0.18448301 0 0 0
-0.25471067 1.1366651 -0.66122174 255 0 0
-0.11599682 1.0803279 -0.50818497 255 0 0
0.539132 -0.32149699 0.33498299 0 0 0
-0.6969074 0.77802509 -0.14179103 255 0 0
-0.52854884 0.66608006 -0.21412775 255 0 0
0.531156 -0.51253802 0.36470801 0 0 0
-0.94068301 0.056043498 -0.36840099 0 0 0
0.48926201 -0.234983 0.369093 0 0 0
0.60281402 -1.01984 0.097346798 0 0 0
0.56692898 -0.70164001 0.122839 0 0 0
0.71003771 -0.74395216 0.15364304 255 0 0
0.62281698 -0.73149896 0.11965998 255 0 0
-0.91257709 -0.066158585 -0.4847652 255 0 0
-1.1448011 -0.0047213621 -0.67246407 255 0 0
-0.90205002 -0.045484699 -0.48455101 0 0 0
-0.275388 0.0521686 0.26154599 0 0 0
-0.256071 0.064166799 0.26199099 0 0 0
-0.218639 0.086697698 0.26076001 0 0 0
-0.23625 0.077335797 0.26357701 0 0 0
-0.117196 0.84853297 0.162284 0 0 0
-0.137236 0.83850402 0.14328501 0 0 0
-0.126674 0.84649903 0.16790999 0 0 0
-0.218493 0.847938 -0.41727701 0 0 0
-0.221522 0.84018898 -0.43368101 0 0 0
-0.21495201 0.85305601 -0.429598 0 0 0
-0.87437099 -0.097746797 -0.50317103 0 0 0
0.088696055 0.61879396 0.26797146 255 0 0
0.064043999 0.63017201 0.201501 0 0 0
0.062743597 0.60688698 0.209466 0 0 0
-0.1259 0.15678699 0.102409 0 0 0
-0.2601237 0.24919638 0.32969126 255 0 0
-0.23047969 0.35146344 0.41010448 255 0 0
0.075683199 0.083167002 0.37807399 0 0 0
0.061067902 0.078922398 0.38628101 0 0 0
0.10827353 0.13749363 0.38179988 255 0 0
-0.449 0.91093701 -0.22617801 0 0 0
0.071927287 0.072556444 0.43498823 255 0 0
0.10782839 0.33121529 0.58420914 255 0 0
0.0263799 0.0414139 0.447157 0 0 0
0.018722 0.0289695 0.46311501 0 0 0
0.0110881 0.0357197 0.45405701 0 0 0
0.21506201 0.0770064 0.33120701 0 0 0
0.019939007 0.19348037 0.59811032 255 0 0
0.163013 0.070349999 0.377296 0 0 0
0.17737661 0.17591138 0.45160404 255 0 0
0.170544 0.062969297 0.38578299 0 0 0
-0.0327815 1.0944099 -0.54696602 0 0 0
-0.80330801 -0.260851 -0.55248201 0 0 0
-0.88181102 -0.076563902 0.0292399 0 0 0
-0.87572497 -0.058045901 0.030505599 0 0 0
-1.2678583 -0.1426449 0.5366751 255 0 0
-0.86532998 -0.021069599 0.034673002 0 0 0
-0.377186 -0.99313998 -0.079543799 0 0 0
-0.39437199 -0.99559897 -0.067438297 0 0 0
-0.38696399 -0.98902899 -0.088026002 0 0 0
-0.56818402 -0.93959701 -0.298585 0 0 0
-0.57776701 -0.93533897 -0.30704501 0 0 0
-0.17755599 0.88623297 -0.56535 0 0 0
-0.172867 0.87922698 -0.555619 0 0 0
-0.190183 0.867302 -0.55599201 0 0 0
0.368296 -0.169728 -0.31502801 0 0 0
0.37555 -0.183392 -0.317628 0 0 0
0.36767301 -0.17782199 -0.32743299 0 0 0
0.64335102 -0.98701298 0.15785199 0 0 0
0.89516556 -0.97005618 0.38522667 255 0 0
0.66538501 -0.90868098 0.29273301 0 0 0
1.1811624 -0.97874057 0.50169033 255 0 0
-0.43047801 0.36338201 0.0289771 0 0 0
-0.5424971 0.36549973 -0.043071374 255 0 0
-0.43206099 0.38213199 0.035866302 0 0 0
-0.050148301 0.567779 0.129447 0 0 0
-0.025939001 0.57236397 0.138458 0 0 0
-0.37376699 0.464513 0.042833801 0 0 0
-0.40590641 0.49767834 0.034478899 255 0 0
-0.39500895 0.52010041 0.039777994 255 0 0
-0.34969044 0.49883941 0.04850056 255 0 0
-0.339048 0.48192799 0.032872099 0 0 0
-0.49931651 0.89298153 0.088680953 255 0 0
-0.44852933 0.69356602 -0.26722071 255 0 0
-0.65487438 0.92425138 -0.26944399 255 0 0
-0.38993999 0.64784402 -0.259884 0 0 0
-0.5422467 0.75393587 -0.26870647 255 0 0
0.80997795 -0.58528906 0.50766098 255 0 0
0.53171802 -0.52917498 0.357939 0 0 0
0.476331 -0.60699201 0.40147799 0 0 0
0.46814501 -0.62743098 0.403514 0 0 0
0.65532601 -0.90190798 0.32191801 0 0 0
0.65369803 -0.88521802 0.327961 0 0 0
0.64876699 -0.89010698 0.33923799 0 0 0
0.60130501 -0.46151599 0.201896 0 0 0
0.598333 -0.44415301 0.207241 0 0 0
0.78172469 -0.43450627 0.273844 255 0 0
0.7610029 -1.2018782 -0.03291681 255 0 0
0.58369601 -1.03148 0.078217402 0 0 0
0.66101432 -0.71418816 0.14673094 255 0 0
0.56597102 -0.69104201 0.143767 0 0 0
1.3100774 -0.88301325 0.25251883 255 0 0
0.570117 -0.675556 0.154074 0 0 0
0.57706398 -0.65490103 0.150677 0 0 0
0.57490897 -0.66047299 0.163738 0 0 0
0.38741001 -0.85088402 0.39321101 0 0 0
-0.33446208 1.1624113 -0.50861162 255 0 0
-0.091109097 0.96855301 -0.56518197 0 0 0
-0.086435102 0.98097903 -0.54479402 0 0 0
0.53043097 -0.354812 0.36494401 0 0 0
0.48402801 -0.339158 0.421781 0 0 0
0.47705799 -0.32048601 0.42469701 0 0 0
0.80567759 -0.32428351 0.58810192 255 0 0
0.64130241 -0.32005957 0.48177555 255 0 0
0.59514809 -0.51845932 0.38990533 255 0 0
0.66242498 -0.94279599 0.190989 0 0 0
0.66910899 -0.92815602 0.20283 0 0 0
0.660878 -0.94831401 0.204768 0 0 0
0.86410874 -1.1982143 0.3318173 255 0 0
0.62383503 -0.99764299 0.274187 0 0 0
0.61154097 -1.01684 0.27364999 0 0 0
0.7290926 -0.64856297 0.25529864 255 0 0
0.578219 -0.61822802 0.20186 0 0 0
0.85115021 -0.69529843 0.19400544 255 0 0
0.57819599 -0.64489299 0.173204 0 0 0
-0.139823 0.15414 0.112885 0 0 0
-0.154257 0.15051401 0.12221 0 0 0
-0.184466 0.103942 0.25337499 0 0 0
-0.17485993 0.21076021 0.14822839 255 0 0
-0.16846199 0.110544 0.247217 0 0 0
-0.183042 0.142684 0.140743 0 0 0
-0.19745 0.13878299 0.15007 0 0 0
-0.213076 0.13370401 0.15742899 0 0 0
-0.18134521 0.11841454 0.31454936 255 0 0
-0.73455799 -0.74648899 -0.235644 0 0 0
-0.7789793 -0.80097687 -0.24669339 255 0 0
0.089837797 0.086886697 0.369037 0 0 0
-0.96963501 0.45459801 -0.100913 0 0 0
-0.96487999 0.45966899 -0.112126 0 0 0
-0.31364799 0.803859 -0.519566 0 0 0
-0.40335828 0.81906909 -0.68530399 255 0 0
-0.29642701 0.811809 -0.52796298 0 0 0
0.20234799 0.075814597 0.343409 0 0 0
0.247509 0.071122199 0.31429699 0 0 0
0.41299218 -0.7376762 -0.97887909 255 0 0
0.38874757 -0.67558378 -0.90639395 255 0 0
0.13793823 -0.75713456 -0.70954973 255 0 0
0.23534399 0.0709887 0.32766101 0 0 0
-1.0853863 -0.085995995 0.30246526 255 0 0
-0.86169302 -0.0440639 0.041264299 0 0 0
-0.89812994 -0.037343986 0.10289974 255 0 0
-0.465101 0.60546499 -0.27135301 0 0 0
-0.440952 0.61538702 -0.27502501 0 0 0
-0.436728 0.60893899 -0.26470199 0 0 0
-0.76869899 -0.784536 -0.19104999 0 0 0
-0.75708997 -0.788212 -0.186546 0 0 0
-0.69264811 -0.89001137 -0.3361609 255 0 0
-0.24064712 0.54148436 0.047025725 255 0 0
-0.216149 0.54329699 0.037243702 0 0 0
-0.34082109 0.75349158 0.2291041 255 0 0
-0.041109599 1.04693 -0.55218297 0 0 0
-0.51097363 1.2511045 -0.57403129 255 0 0
-0.15716401 0.60083503 0.032931998 0 0 0
-0.14899001 0.59286302 0.040691301 0 0 0
-0.165106 0.580217 0.039339598 0 0 0
0.59432566 -0.43308264 0.59355003 255 0 0
0.55468273 -0.41216531 0.56683707 255 0 0
0.44891801 -0.439789 0.470662 0 0 0
0.56987399 -0.654917 0.196229 0 0 0
0.57285899 -0.639301 0.20551801 0 0 0
-0.45096701 0.36848199 0.066734798 0 0 0
-0.13633229 0.34959686 0.32436869 255 0 0
-0.45840099 0.36424699 0.076250099 0 0 0
-0.55936158 0.43799493 -0.029854313 255 0 0
-0.40464899 0.43296501 -0.034985799 0 0 0
0.74332601 -0.64997983 0.18970741 255 0 0
0.580239 -0.62906802 0.181811 0 0 0
0.58380502 -0.60738403 0.17664801 0 0 0
0.58337653 -0.61326331 0.19001813 255 0 0
0.59068841 -0.59187555 0.1848557 255 0 0
0.580621 -0.596187 0.195948 0 0 0
0.583018 -0.573861 0.190717 0 0 0
0.57905501 -0.57928097 0.202097 0 0 0
-0.952865 0.55715901 -0.112402 0 0 0
0.051814798 -0.83407098 -0.59967899 0 0 0
-0.077976182 -1.0371156 -0.55414176 255 0 0
0.034497701 -0.82175201 -0.59450001 0 0 0
0.085124001 -0.831653 -0.62528199 0 0 0
0.066435702 -0.834961 -0.61263198 0 0 0
0.076350398 -0.82646102 -0.633596 0 0 0
0.58496797 -0.55818301 0.198577 0 0 0
0.57964498 -0.562846 0.209387 0 0 0
0.58222502 -0.47077999 0.26857701 0 0 0
0.84444994 -0.43727931 0.36387455 255 0 0
0.57518101 -0.45832801 0.285476 0 0 0
0.51348299 -0.70136201 0.303601 0 0 0
0.51443201 -0.68514103 0.31133899 0 0 0
0.51761103 -0.31727299 0.37148201 0 0 0
0.50921798 -0.29820201 0.37350699 0 0 0
0.53412402 -0.37210599 0.36003199 0 0 0
0.58864099 -0.54267597 0.208114 0 0 0
0.583579 -0.54741502 0.21930701 0 0 0
0.78927511 -0.25515974 0.60025841 255 0 0
0.64952397 -0.97209799 0.16890401 0 0 0
0.65581203 -0.95738798 0.179952 0 0 0
0.77598065 -1.0393962 0.17694521 255 0 0
0.67521799 -0.91351199 0.213801 0 0 0
0.67385101 -0.91914201 0.226815 0 0 0
0.667548 -0.933806 0.215793 0 0 0
0.57573301 -0.58460999 0.214321 0 0 0
-0.22855 0.12763 0.16448499 0 0 0
-0.27153116 0.27923203 0.25476643 255 0 0
-0.260719 0.114304 0.17666 0 0 0
-0.17505281 0.6367839 0.36141568 255 0 0
-0.122147 0.12736499 0.22593699 0 0 0
-0.093539 0.13537 0.20757 0 0 0
-0.27677199 0.107768 0.182809 0 0 0
-0.293401 0.100046 0.187823 0 0 0
-0.326316 0.18367082 0.28661647 255 0 0
-0.036212701 0.149829 0.17048199 0 0 0
-0.078677803 0.13972799 0.199358 0 0 0
-0.25476468 0.11144969 0.33826491 255 0 0
-0.24362899 0.045683902 0.305298 0 0 0
-0.188265 0.078949302 0.302771 0 0 0
0.124393 0.13575 0.20714401 0 0 0
0.111929 0.13868199 0.20084301 0 0 0
0.068970099 0.129287 0.25760499 0 0 0
0.27649301 0.0199992 0.37011701 0 0 0
-0.97898775 0.46047634 -0.32113636 255 0 0
-0.91214401 0.41760701 -0.27706 0 0 0
-0.91562998 0.40259099 -0.28604001 0 0 0
0.27998701 0.83087802 0.150801 0 0 0
-0.86983198 -0.77675301 -0.28893399 0 0 0
-0.85714298 -0.76711798 -0.27237099 0 0 0
-0.85452598 -0.762923 -0.28124899 0 0 0
-0.90142202 -0.37167901 -0.062288702 0 0 0
-0.912444 -0.352364 -0.058218401 0 0 0
-0.91653198 -0.34814501 -0.0627966 0 0 0
0.239015 0.78492099 0.116198 0 0 0
0.245903 0.80660802 0.115807 0 0 0
-0.78148717 -0.70316941 -0.084023163 255 0 0
-0.68389302 -0.68534499 -0.124265 0 0 0
-0.68475997 -0.70140898 -0.13160001 0 0 0
-0.40245199 0.41334799 -0.104658 0 0 0
-0.98817682 -0.075651415 0.23362215 255 0 0
-0.84735799 -0.0301334 0.0518516 0 0 0
-0.83379799 -0.0157269 0.060978401 0 0 0
-0.84811401 -0.0148544 0.050930802 0 0 0
-0.32717901 -0.151458 -0.61339599 0 0 0
0.59380585 -1.3695109 -0.069469802 255 0 0
0.67083311 -1.4877383 -0.13635044 255 0 0
0.49599099 -1.0784301 0.042522401 0 0 0
0.57673198 -0.63415301 0.193441 0 0 0
-0.21886399 0.86541498 -0.56133401 0 0 0
-0.24162985 0.94201738 -0.37458435 255 0 0
-0.45755199 0.40697601 0.0784484 0 0 0
-0.70089769 0.44332609 -0.13647349 255 0 0
-0.462901 0.38398501 0.0815164 0 0 0
-0.450818 0.44775501 0.0841932 0 0 0
-0.459185 0.42570901 0.085411198 0 0 0
0.59189802 -0.52713001 0.217508 0 0 0
0.58755702 -0.53209502 0.229008 0 0 0
0.59267902 -0.51099402 0.225269 0 0 0
0.70078748 -0.53678906 0.26758674 255 0 0
0.59184599 -0.49411601 0.231667 0 0 0
0.717704 -0.5136928 0.28180343 255 0 0
-0.047871798 0.71665603 0.167201 0 0 0
-0.0607168 0.71737099 0.167282 0 0 0
-0.0617995 0.69739503 0.16537599 0 0 0
-0.046827 0.73601401 0.17056 0 0 0
-0.0596442 0.73673397 0.170835 0 0 0
-0.0457507 0.75393999 0.177214 0 0 0
-0.058561001 0.75442898 0.178023 0 0 0
0.61745793 -0.27417627 0.50551432 255 0 0
0.584629 -0.64495099 -0.0095600197 0 0 0
0.58078998 -0.63792801 -0.026127201 0 0 0
0.58263499 -0.62804699 -0.0033751701 0 0 0
0.82768387 -1.0394276 0.18943113 255 0 0
0.53864199 -0.452535 0.36250201 0 0 0
0.56503701 -0.55799901 -0.122101 0 0 0
0.56684798 -0.56464899 -0.106314 0 0 0
0.56109899 -0.57959199 -0.117809 0 0 0
-0.327234 0.083714701 0.196523 0 0 0
-0.34442499 0.075244799 0.200536 0 0 0
-0.153017 0.116285 0.24011301 0 0 0
-0.13698199 0.122576 0.23403101 0 0 0
-0.3822605 0.30042368 0.53132069 255 0 0
-0.38580257 0.18233302 0.39684331 255 0 0
-0.0643408 0.143548 0.19018 0 0 0
-0.39459401 0.052604198 0.215866 0 0 0
-0.41192099 0.044103101 0.219932 0 0 0
-0.42916799 0.035583001 0.224086 0 0 0
-0.14509554 0.59980887 0.1086514 255 0 0
-0.108201 0.57643902 0.078200102 0 0 0
-0.121383 0.55802798 0.088065498 0 0 0
-0.44775599 0.0252352 0.226062 0 0 0
-0.049999099 0.146998 0.180878 0 0 0
-0.263605 0.0328223 0.30386701 0 0 0
-0.82070601 -0.26673701 -0.535532 0 0 0
-1.08579 0.31062701 -0.028993299 0 0 0
-1.09286 0.30631301 -0.019189101 0 0 0
-1.1479082 0.37183496 -0.044441201 255 0 0
0.055254001 0.126406 0.26782799 0 0 0
-0.084182799 1.0728 -0.56278199 0 0 0
-0.097504802 1.07017 -0.56067002 0 0 0
-0.11048413 1.110213 -0.62111163 255 0 0
-0.203311 0.979352 -0.375714 0 0 0
-0.213163 0.96367902 -0.363758 0 0 0
-0.23142949 -1.220081 -0.46435955 255 0 0
-0.38184717 -1.36632 -0.60612547 255 0 0
-0.097526021 -1.0272454 -0.24924773 255 0 0
-0.0064329118 -0.79298025 -0.57054335 255 0 0
-0.0124196 -0.77958101 -0.57849401 0 0 0
-0.90567601 -0.37409499 -0.079245597 0 0 0
-1.1464299 -0.51618934 0.009386423 255 0 0
-0.85361177 -0.038682848 0.085165389 255 0 0
-0.0127114 -0.78152502 -0.60033298 0 0 0
0.54063898 -0.68403703 0.26363701 0 0 0
0.53441203 -0.688564 0.27399799 0 0 0
0.53420597 -0.70489699 0.266651 0 0 0
0.89232969 -0.30265787 0.7792778 255 0 0
0.62436068 -0.36429495 0.53985721 255 0 0
-0.22695699 0.82497901 -0.50390899 0 0 0
0.184644 -0.90094 -0.34408 0 0 0
0.12955102 -1.0019938 -0.4267323 255 0 0
0.175859 -0.89577597 -0.352364 0 0 0
-0.46892387 -0.69433945 -0.7159707 255 0 0
-0.45375699 -0.677037 -0.76227599 0 0 0
-0.46456999 -0.67728299 -0.76700503 0 0 0
0.37970099 -0.95749998 -0.17713299 0 0 0
0.374598 -0.94520903 -0.19509099 0 0 0
0.39700401 -0.93315798 -0.17136499 0 0 0
0.53131902 -0.41745499 0.37233001 0 0 0
-0.14119001 0.61352301 0.034602601 0 0 0
0.89796525 -0.47911459 0.32667679 255 0 0
0.588238 -0.48284599 0.25093499 0 0 0
-0.55979198 -0.52625501 -0.50216103 0 0 0
-0.57777297 -0.509691 -0.49163699 0 0 0
-0.58121616 -0.51035118 -0.51148975 255 0 0
0.51139897 -0.48637399 0.395179 0 0 0
0.50389498 -0.49056801 0.40467799 0 0 0
0.50576001 -0.50754499 0.39872101 0 0 0
0.400677 -0.174862 -0.192617 0 0 0
0.39140901 -0.168961 -0.19946299 0 0 0
0.31132901 -0.106769 -0.13806701 0 0 0
0.30182901 -0.091123603 -0.139231 0 0 0
0.47808632 0.026739586 -0.25495327 255 0 0
-0.953282 -0.198854 -0.36785999 0 0 0
0.58803898 -0.46023199 0.243883 0 0 0
0.585334 -0.46549299 0.256293 0 0 0
-0.044674098 0.77100998 0.18572199 0 0 0
-0.057412099 0.77073002 0.187865 0 0 0
-0.043486498 0.78643799 0.197237 0 0 0
-0.056694198 0.785339 0.20231 0 0 0
-0.042527098 0.80042303 0.212373 0 0 0
0.05867755 0.49127874 0.60908848 255 0 0
-0.193088 0.85895401 -0.52872097 0 0 0
-0.189909 0.86235601 -0.54320103 0 0 0
-0.29304659 0.98209095 -0.48635125 255 0 0
-0.70112741 -0.60972571 -0.41967523 255 0 0
-0.56980699 -0.58859801 -0.38410801 0 0 0
-0.56883597 -0.58153498 -0.397306 0 0 0
-0.30590901 0.00065980997 0.317058 0 0 0
0.0045747501 0.15325201 0.151279 0 0 0
-0.0089876903 0.154732 0.145087 0 0 0
-0.76479113 0.20481001 -0.22230332 255 0 0
-0.51130003 0.239309 0.14223699 0 0 0
-0.483641 0.245005 0.120453 0 0 0
-0.57616103 0.254271 0.180989 0 0 0
-0.41579294 0.26112768 0.47035325 255 0 0
-0.49549043 0.89674473 0.024585364 255 0 0
-0.38634062 0.57604736 0.046281617 255 0 0
-0.63158107 0.75204092 0.011657458 255 0 0
-0.239329 0.77258497 0.19328199 0 0 0
-0.24882001 0.776169 0.180399 0 0 0
0.0099360002 0.60064602 0.125524 0 0 0
0.028505299 0.61223298 0.125297 0 0 0
-0.73029 0.64295501 0.057945799 0 0 0
-0.73857999 0.64906698 0.048083901 0 0 0
-0.74347192 0.86733502 0.16782925 255 0 0
-0.25347301 1.1407 -0.42060199 0 0 0
-0.28174901 0.0223439 0.305491 0 0 0
-0.300587 0.0111785 0.30621201 0 0 0
0.42113599 -0.22234499 -0.28816301 0 0 0
0.427376 -0.23096301 -0.280691 0 0 0
0.52377057 -0.19817604 -0.35661125 255 0 0
-0.48545399 0.378194 -0.297463 0 0 0
-0.484653 0.39504701 -0.289121 0 0 0
-0.47530299 0.374259 -0.290869 0 0 0
-0.61499149 0.3850435 -0.43783784 255 0 0
-0.61427802 0.361956 -0.378216 0 0 0
-0.61460102 0.34535101 -0.386841 0 0 0
-0.686342 0.35156199 -0.393163 0 0 0
-0.68639135 0.34808522 -0.46775484 255 0 0
-0.039691702 -1.08417 -0.0570402 0 0 0
-0.046471499 -1.0769 -0.065098599 0 0 0
-0.032150201 -1.07762 -0.077709801 0 0 0
0.0063986802 0.808357 0.100373 0 0 0
-0.87560201 -0.40832001 -0.0747208 0 0 0
-0.87973499 -0.39444599 -0.0592364 0 0 0
-0.88874602 -0.39006999 -0.067929097 0 0 0
-0.898076 -0.380404 -0.070887297 0 0 0
-0.82788301 -0.0385307 0.066742398 0 0 0
-0.82255501 -0.0230269 0.067132197 0 0 0
-0.333617 -0.129307 -0.61609799 0 0 0
0.546601 -0.66296601 0.26022699 0 0 0
0.54868603 -0.64708698 0.26871699 0 0 0
0.54082298 -0.66761702 0.270836 0 0 0
0.183273 0.76682502 0.11889 0 0 0
0.16683146 -1.2645627 0.29653525 255 0 0
0.207862 -1.0949301 0.241311 0 0 0
-0.39836401 0.647111 -0.304548 0 0 0
-0.38099101 0.65951002 -0.30401 0 0 0
-0.6739018 0.99093097 -0.2450913 255 0 0
-0.27847257 0.55533433 0.077915348 255 0 0
-0.22790872 1.2589223 -0.1844438 255 0 0
-0.0797446 0.98298901 -0.56102097 0 0 0
-0.079756953 0.92319357 0.058597468 255 0 0
-0.064194582 0.84150994 0.18039909 255 0 0
0.62003303 -1.01376 0.12934101 0 0 0
0.518417 -0.34060299 0.37895101 0 0 0
0.77050036 -0.25198334 0.55927533 255 0 0
-0.97027802 0.47125301 -0.094522104 0 0 0
-0.96574199 0.47633401 -0.105756 0 0 0
0.58466101 -0.442332 0.24868099 0 0 0
0.58178902 -0.44761601 0.261042 0 0 0
-0.034361597 0.80256188 0.29755297 255 0 0
-0.053288601 0.82808203 0.24446 0 0 0
-0.62919199 0.55297601 0.204199 0 0 0
-0.147144 -0.241073 -0.49661201 0 0 0
-0.13659599 -0.244811 -0.49033099 0 0 0
-0.15266822 -0.24375239 -0.63063544 255 0 0
-0.205954 0.069664299 0.305527 0 0 0
-0.054912701 0.74605 0.061647002 0 0 0
-0.094860256 0.7042371 0.23999338 255 0 0
-0.33781543 0.78054667 -0.075267181 255 0 0
-0.166539 0.166141 0.044714399 0 0 0
-0.21503028 0.32199904 0.19659092 255 0 0
-0.250076 0.150032 0.108047 0 0 0
-0.130826 0.923527 -0.561243 0 0 0
-0.34047699 0.71109498 -0.384092 0 0 0
-0.339077 0.70589799 -0.37197599 0 0 0
-0.16642 1.06341 -0.4165 0 0 0
0.028653564 1.1638219 0.0014287643 255 0 0
-1.0018556 -0.22737825 -0.46261215 255 0 0
-0.17531383 1.0678871 -0.35842848 255 0 0
-1.2910966 0.87574911 -0.45065299 255 0 0
-0.42399499 0.34437901 -0.238087 0 0 0
0.10029284 0.58705384 -0.54051864 255 0 0
-0.59715348 0.23561761 -0.1207267 255 0 0
0.163844 0.65858102 0.147452 0 0 0
-0.62783402 0.34732801 -0.38971299 0 0 0
-0.487544 0.32810399 -0.323176 0 0 0
-0.48657301 0.34496701 -0.314906 0 0 0
-0.3827132 0.39490598 -0.41441798 255 0 0
-0.87256902 -0.42251799 -0.087942801 0 0 0
-0.88170302 -0.40920001 -0.089962997 0 0 0
-0.96750063 -0.51105559 -0.041867252 255 0 0
-0.86677098 -0.41284999 -0.065923303 0 0 0
-1.1849945 -0.63822114 0.067713268 255 0 0
0.49600801 -0.376192 0.41464499 0 0 0
0.105063 0.68169701 0.121585 0 0 0
0.0951306 0.68887901 0.11723 0 0 0
0.06720192 0.71904367 0.22798425 255 0 0
0.78246671 -1.3278302 0.068024628 255 0 0
0.56780797 -1.05818 0.138514 0 0 0
0.54947001 -1.06938 0.120182 0 0 0
-0.177085 0.876149 -0.54024798 0 0 0
0.58694482 -1.2531806 -0.00070989446 255 0 0
-0.931521 -0.147811 -0.43178999 0 0 0
-0.92523903 -0.143114 -0.44203499 0 0 0
-0.92619997 -0.158714 -0.44946101 0 0 0
-0.074805185 0.71933085 0.26952738 255 0 0
-0.16682753 0.76254684 0.45262647 255 0 0
0.016356699 0.678644 0.091761902 0 0 0
0.87632424 -0.55673319 0.53282654 255 0 0
0.70537502 -1.0272439 0.16726558 255 0 0
0.63930398 -0.99804699 0.18382899 0 0 0
0.62998998 -1.01193 0.171112 0 0 0
0.77373528 -0.59137827 0.45141003 255 0 0
0.54514599 -0.52043903 0.337859 0 0 0
0.36925101 -0.94199198 -0.29818699 0 0 0
0.41284096 -0.95511496 -0.28185186 255 0 0
0.36437199 -0.94651699 -0.28678101 0 0 0
-0.54874301 0.081103198 0.14221101 0 0 0
-0.56102997 0.059240799 0.14986899 0 0 0
-0.59203982 0.10036363 0.26668513 255 0 0
-0.075399101 -1.0078 -0.141545 0 0 0
-0.072624996 -1.0193 -0.13385899 0 0 0
-0.085684299 -1.00289 -0.128553 0 0 0
-0.1858298 -1.4957117 -0.71902627 255 0 0
-0.18736772 -1.0860448 -0.50322026 255 0 0
-0.166302 -0.852247 -0.41362399 0 0 0
0.79482925 -0.40160963 0.3144621 255 0 0
-0.96850902 0.48678601 -0.086366303 0 0 0
-1.3894727 0.53617024 -0.27568161 255 0 0
-1.1286727 0.40772471 -0.6360333 255 0 0
-0.92322803 0.309021 -0.33177799 0 0 0
-0.1521627 1.0992215 -0.216901 255 0 0
-0.248651 1.02694 -0.36021399 0 0 0
-0.78179997 0.65738899 0.0203731 0 0 0
-1.01798 0.41775301 -0.0173293 0 0 0
-1.3932496 0.58061737 -0.2548407 255 0 0
-1.00827 0.43737599 -0.0185777 0 0 0
-1.11208 0.29284999 0.0114559 0 0 0
-1.11694 0.287808 0.0225686 0 0 0
-1.1051 0.30658901 0.0225488 0 0 0
-0.62877101 -0.72358 -0.38414201 0 0 0
-1.00973 0.454216 -0.0125143 0 0 0
-1.01252 0.471452 -0.0071362001 0 0 0
-1.1336672 0.47829291 -0.10029075 255 0 0
-0.43054622 -0.97023797 -0.3019833 255 0 0
-1.0805818 0.57714528 -0.29200831 255 0 0
-0.92865098 0.513147 -0.147165 0 0 0
-1.1729087 0.21992473 -0.56182855 255 0 0
-0.620574 -0.61349601 -0.58502001 0 0 0
-0.53875488 -0.66111481 -0.56902587 255 0 0
-1.0788265 -0.102538 -0.58246267 255 0 0
-0.97036999 0.50397199 -0.080605 0 0 0
-0.96802902 0.50984198 -0.093244903 0 0 0
-0.35996401 -0.00746672 0.27833101 0 0 0
-0.370397 -0.017691299 0.28256699 0 0 0
-0.28353301 0.77594602 -0.463319 0 0 0
-0.48706248 1.0233483 -0.39740917 255 0 0
-0.034918901 0.72139102 0.066176303 0 0 0
-0.023253201 0.71825802 0.070702903 0 0 0
-0.028906399 0.698309 0.068612203 0 0 0
0.35838401 -1.0054801 -0.16984899 0 0 0
-0.48559901 0.36182699 -0.30671901 0 0 0
-0.43835926 0.37751758 -0.3386198 255 0 0
-0.62050498 0.41740999 -0.36179301 0 0 0
-0.62023902 0.433983 -0.35280001 0 0 0
-0.60692 0.43190801 -0.34997299 0 0 0
0.42688191 -1.1852806 -0.34323987 255 0 0
0.33230901 -0.98438001 -0.293026 0 0 0
0.32773599 -0.98929101 -0.28157499 0 0 0
-0.56399751 -0.55651104 -0.91398984 255 0 0
-0.55903602 -0.41192499 -0.584369 0 0 0
-0.57122099 -0.40893099 -0.58815598 0 0 0
-0.24848638 0.52062738 -0.60194314 255 0 0
-0.30467135 0.39993882 -0.5423857 255 0 0
-0.37481901 0.23136 -0.386592 0 0 0
-0.85605103 -0.432183 -0.068969697 0 0 0
-0.85770899 -0.41727099 -0.057263099 0 0 0
-0.070930101 -0.664056 -0.80624199 0 0 0
-0.066942103 -0.65589797 -0.79764497 0 0 0
-0.058825199 -0.66699898 -0.80036902 0 0 0
-0.88028401 -0.26016399 -0.458406 0 0 0
-0.88728499 -0.264319 -0.448412 0 0 0
-0.94711047 -0.26283881 -0.50277531 255 0 0
-0.563811 -0.58261502 -0.54629499 0 0 0
-0.95746702 -0.318492 -0.22991 0 0 0
-0.95987099 -0.31438899 -0.211312 0 0 0
-1.0488126 -0.35115376 -0.22565298 255 0 0
-1.0825 0.233188 -0.11053 0 0 0
-1.1310999 0.26902518 -0.13789842 255 0 0
-1.07313 0.252552 -0.1122 0 0 0
-1.1827826 0.53836632 -0.18023679 255 0 0
-0.99330634 0.52959043 -0.098699696 255 0 0
-0.10064 0.60221201 0.059147298 0 0 0
-0.91692889 0.53156489 -0.15898228 255 0 0
-0.47621027 0.47150996 0.42565614 255 0 0
0.050857 0.67505801 0.106377 0 0 0
0.030419141 0.66612905 0.1186175 255 0 0
0.014525412 0.69340056 0.15924196 255 0 0
-0.27798438 0.88754642 -0.45604643 255 0 0
-0.20948499 0.85795701 -0.44029799 0 0 0
-0.069207117 -1.0833724 -0.60904223 255 0 0
0.057611801 -0.82977003 -0.62096697 0 0 0
0.82732558 -0.38002768 0.32791707 255 0 0
0.57398403 -0.412469 0.27077499 0 0 0
-0.220128 1.03443 -0.37880099 0 0 0
-0.22971 1.01809 -0.36712301 0 0 0
-0.518942 0.72983199 -0.111665 0 0 0
-0.298004 1.08532 -0.380395 0 0 0
-0.30454001 1.09413 -0.387171 0 0 0
-0.35992366 1.5574571 0.16475417 255 0 0
-0.075541101 0.088750198 0.34498501 0 0 0
-1.1161 0.21827 -0.074151397 0 0 0
-1.1149499 0.233803 -0.0666449 0 0 0
-1.2515455 0.30256528 -0.17345841 255 0 0
-1.09879 0.29226899 -0.0295956 0 0 0
-1.09126 0.296211 -0.039197098 0 0 0
-1.09627 0.28192899 -0.0490655 0 0 0
-1.12326 0.159004 -0.0709721 0 0 0
-1.12476 0.143592 -0.0622226 0 0 0
-1.12913 0.154429 -0.060359001 0 0 0
-0.260041 -0.81972498 -0.468696 0 0 0
-0.13610099 0.158952 0.087951303 0 0 0
-0.112499 0.15841199 0.090808399 0 0 0
-0.098306596 0.15904699 0.087377504 0 0 0
-0.149976 0.15623701 0.098382503 0 0 0
0.017798174 0.18996492 -0.65835297 255 0 0
-0.037404001 -0.073172301 -0.42505699 0 0 0
-0.026704799 -0.0610433 -0.40946099 0 0 0
-0.63077027 -1.0562128 -0.2414819 255 0 0
-0.631585 -0.97292 -0.21459 0 0 0
-0.61438334 -0.98164487 -0.23226586 255 0 0
-0.060310993 0.72589278 0.20315686 255 0 0
-0.01292 0.75747001 0.076578803 0 0 0
-0.0169059 0.73858702 0.072562501 0 0 0
-0.6191839 0.28325734 -0.57646424 255 0 0
-0.63066602 0.184535 -0.482254 0 0 0
-0.62351143 0.27046824 -0.53480405 255 0 0
-0.17419299 0.127905 -0.35183701 0 0 0
-0.167281 0.122267 -0.353358 0 0 0
0.031788804 0.430693 -0.60564744 255 0 0
-0.0109694 0.71559799 0.0749975 0 0 0
0.14916238 0.76833284 0.22684965 255 0 0
-0.35942999 0.475683 0.0212656 0 0 0
-0.33794999 0.486498 0.0192797 0 0 0
-0.62251198 0.39987701 -0.36880299 0 0 0
-0.60925198 0.397773 -0.365762 0 0 0
-1.0411334 -0.63782036 0.0099438857 255 0 0
-0.84782898 -0.43709999 -0.059879601 0 0 0
-1.2138119 -0.77132326 0.051174361 255 0 0
-1.1507837 -0.68458247 0.00082674884 255 0 0
-0.78968602 -0.0306892 0.086094201 0 0 0
-0.800704 -0.0275132 0.080269098 0 0 0
0.57441598 -0.64999503 0.18475901 0 0 0
-0.97426814 -0.06485983 0.42880777 255 0 0
-0.7827 -0.0116496 0.085660703 0 0 0
-0.78973198 0.0095701404 0.0843715 0 0 0
0.57479203 -0.38961601 0.26408899 0 0 0
0.57209402 -0.39542699 0.276894 0 0 0
0.0137808 0.62734503 0.10844 0 0 0
0.0043966798 0.60767603 0.116186 0 0 0
0.4325594 -0.03516956 -0.19669951 255 0 0
0.329835 -0.104796 -0.115616 0 0 0
0.35749736 -0.095715389 -0.12184303 255 0 0
-0.66106403 -0.98683298 -0.161861 0 0 0
-0.6999312 -1.0735272 -0.16723268 255 0 0
-0.66069704 -1.000051 -0.1860228 255 0 0
0.71227884 -0.35728231 0.48699251 255 0 0
0.52083099 -0.38097501 0.38022399 0 0 0
0.65172702 -0.968436 0.205962 0 0 0
0.64560902 -0.98319799 0.194883 0 0 0
0.561257 -0.695925 0.155209 0 0 0
0.96873105 -0.78546047 0.18114546 255 0 0
-0.25835001 0.79384601 -0.43105501 0 0 0
-0.10524902 0.68087655 -0.69625366 255 0 0
-0.51248598 0.52911502 -0.237105 0 0 0
0.62728399 -0.97549599 0.083600402 0 0 0
0.57260197 -0.37261701 0.270134 0 0 0
0.69366777 -0.36408204 0.32056227 255 0 0
-0.31050801 0.014569 0.29322699 0 0 0
-0.060092401 0.094136797 0.337901 0 0 0
-0.0158424 0.107714 0.313575 0 0 0
-0.030622 0.103406 0.32173201 0 0 0
-0.23461771 1.1115843 -0.19701968 255 0 0
-0.164437 0.15273701 0.107777 0 0 0
-0.17880701 0.148783 0.117061 0 0 0
-0.19324499 0.14509 0.126406 0 0 0
-0.004759673 0.90092307 0.0095201517 255 0 0
-0.018371264 1.1323649 -0.25467727 255 0 0
-0.0112005 0.840922 0.122875 0 0 0
-0.57922101 -0.33646399 -0.61320698 0 0 0
-0.56651098 -0.31159899 -0.619802 0 0 0
-0.5739758 -0.3943795 -0.80608237 255 0 0
-0.0974098 1.12207 -0.53903002 0 0 0
-0.18883815 1.2567517 -0.98470336 255 0 0
-0.12348077 1.1130812 -0.57230645 255 0 0
0.28263599 -0.029493701 -0.096877597 0 0 0
0.292283 -0.033777598 -0.089435399 0 0 0
0.30279928 -0.03260316 -0.10486953 255 0 0
-0.196334 -0.246613 -0.522201 0 0 0
-0.203554 -0.2419903 -0.53353465 255 0 0
-0.036778715 -0.21711534 -0.78700572 255 0 0
-0.055592801 0.7237891 0.23037922 255 0 0
-0.00039591 0.754915 0.080061801 0 0 0
-0.607719 0.44766399 -0.339414 0 0 0
-0.1049526 1.0344248 -0.65910167 255 0 0
-0.83643001 -0.456159 -0.0641158 0 0 0
-0.94295734 -0.55633974 -0.047857743 255 0 0
-0.77149701 -0.0149677 0.091222502 0 0 0
-0.9760114 -0.067314319 0.54961073 255 0 0
-0.77725297 0.00685893 0.087888598 0 0 0
-0.26895237 0.796561 0.12149474 255 0 0
0.664527 -0.89208001 0.299059 0 0 0
0.26820001 0.90160698 0.15970799 0 0 0
0.26003999 0.90816402 0.15341599 0 0 0
0.61626369 1.3158596 0.077296123 255 0 0
-0.53983015 1.1223015 -0.28582019 255 0 0
-0.30261701 0.75413001 -0.43673399 0 0 0
-0.28591499 0.76219398 -0.42323601 0 0 0
0.56908703 -0.35533601 0.275343 0 0 0
1.0831459 -0.27725169 0.4555988 255 0 0
0.58067501 -1.05597 0.183054 0 0 0
0.57509297 -1.06106 0.193569 0 0 0
0.58683646 -1.1218654 0.16899404 255 0 0
-0.41983601 0.76940799 -0.429057 0 0 0
-0.41339299 0.78613001 -0.425026 0 0 0
-0.39879799 0.75399101 -0.43662101 0 0 0
0.632043 -1.0065 0.15816399 0 0 0
0.51679802 -0.465159 0.39146101 0 0 0
0.519005 -0.48217601 0.38574401 0 0 0
0.212966 0.728926 0.123876 0 0 0
0.22548699 0.719437 0.128199 0 0 0
0.206182 0.70806801 0.12934799 0 0 0
0.55642998 -0.54422802 0.30203301 0 0 0
0.7047618 -1.3327615 -0.021731235 255 0 0
0.527574 -1.07525 0.084346198 0 0 0
0.49896199 -1.07296 0.030365299 0 0 0
-0.35687456 0.66393632 -0.33350909 255 0 0
-0.41590825 0.51930767 0.30984682 255 0 0
-0.390039 0.57968301 0.14988001 0 0 0
-0.117031 0.117082 0.26169401 0 0 0
-0.068458818 0.33974734 0.43483555 255 0 0
-0.101171 0.850178 0.20748501 0 0 0
0.260113 0.74566799 0.149103 0 0 0
0.25584501 0.73712099 0.128125 0 0 0
0.26045999 0.74278897 0.12983499 0 0 0
-0.55003798 0.71837199 -0.0979423 0 0 0
-0.565301 0.712484 -0.090680704 0 0 0
-0.22328299 0.136272 0.143142 0 0 0
-0.26163357 0.39961571 0.28047019 255 0 0
-0.25469178 0.1363066 0.16452818 255 0 0
-0.596843 0.70077699 -0.076856099 0 0 0
-0.269472 0.119874 0.165857 0 0 0
-0.28501201 0.113781 0.172906 0 0 0
-0.59607899 0.46082699 -0.324754 0 0 0
-0.5948025 0.48116726 -0.32066843 255 0 0
-0.58372998 0.47413 -0.310862 0 0 0
-0.48400101 -0.79917997 -0.030537499 0 0 0
-0.4869546 -0.78473032 -0.017302448 255 0 0
-0.72240794 -0.83075815 0.20704047 255 0 0
-0.58696198 -0.64507103 -0.78035098 0 0 0
-0.60298502 -0.64533299 -0.77984703 0 0 0
-0.590388 -0.63158798 -0.76686901 0 0 0
-0.57278901 -0.35857701 -0.61028999 0 0 0
-0.61740202 0.32764399 -0.393383 0 0 0
-0.62013602 0.143291 -0.52433699 0 0 0
-0.62364399 0.15716 -0.51046002 0 0 0
-0.60844702 0.15659399 -0.51017499 0 0 0
-0.679784 0.45373201 -0.345514 0 0 0
-0.69320297 0.455744 -0.348052 0 0 0
-0.68341398 0.46828699 -0.33164999 0 0 0
0.4108479 -0.048598867 -0.48088941 255 0 0
0.29051 -0.139228 -0.40658599 0 0 0
0.289067 -0.12657601 -0.39199501 0 0 0
-0.0089405999 0.792822 0.0906967 0 0 0
0.0053695301 0.79137099 0.0918357 0 0 0
0.0034255299 0.77372098 0.0847032 0 0 0
-0.063508257 0.69456315 0.32807621 255 0 0
-0.83465898 -0.463404 -0.076276898 0 0 0
-0.607288 0.41533801 -0.35887101 0 0 0
-0.82739401 -0.460435 -0.055428799 0 0 0
-0.76089501 -0.0187377 0.097444497 0 0 0
-0.75457501 0.00012089 0.098388903 0 0 0
-0.75424302 0.015968099 0.107336 0 0 0
-0.76700801 0.0194198 0.101275 0 0 0
0.22549789 0.7199977 0.14159904 255 0 0
0.04614 0.62412 0.125349 0 0 0
0.72296864 -0.29438502 0.6463806 255 0 0
0.56346601 -0.336411 0.27866799 0 0 0
0.78748947 -0.2858583 0.36986655 255 0 0
0.453807 -1.09761 0.036477 0 0 0
0.47675937 -1.1103892 0.047569726 255 0 0
0.53754944 -1.2988684 -0.010762406 255 0 0
-0.42848599 0.42389101 0.039652199 0 0 0
-0.14521948 0.17234807 0.29209203 255 0 0
-0.19288599 0.031977002 0.374488 0 0 0
0.0410055 0.123133 0.27710599 0 0 0
-0.680538 -0.59984398 -0.0553829 0 0 0
-0.67844999 -0.61585498 -0.0635048 0 0 0
-0.67474699 -0.62139797 -0.0522612 0 0 0
-0.73352867 -0.62012583 -0.03454785 255 0 0
-0.86013901 -0.81385702 -0.207424 0 0 0
-0.85059202 -0.810435 -0.199662 0 0 0
-0.84385699 -0.799052 -0.203769 0 0 0
-0.58081698 0.70723099 -0.083009303 0 0 0
-0.48407778 0.82425594 0.087820321 255 0 0
-0.32242873 0.4628723 0.51362163 255 0 0
-0.31720099 0.10021 0.18494201 0 0 0
-0.61307561 0.6982643 -0.067964219 255 0 0
-0.33384499 0.092929401 0.190376 0 0 0
-0.136489 0.638502 0.0309784 0 0 0
-0.128656 0.65946102 0.029925 0 0 0
0.091275305 0.6819241 0.18326987 255 0 0
0.110996 0.61744499 0.158878 0 0 0
-0.495565 -0.0191381 -0.61997002 0 0 0
-0.66855925 -0.36664087 -0.026508918 255 0 0
-0.482968 -0.0053308099 -0.60703403 0 0 0
-0.62953651 -0.45719275 -0.87486267 255 0 0
-0.59108502 0.21096 -0.45460999 0 0 0
-0.60632098 0.211659 -0.45498401 0 0 0
