ply
format ascii 1.0
comment PCL generated
element vertex 1082
property float x
property float y
property float z
property uchar red
property uchar green
property uchar blue
element camera 0
property float view_px
property float view_py
property float view_pz
property float x_axisx
property float x_axisy
property float x_axisz
property float y_axisx
property float y_axisy
property float y_axisz
property float z_axisx
property float z_axisy
property float z_axisz
property float focal
property float scalex
property float scaley
property float centerx
property float centery
property int viewportx
property int viewporty
property float k1
property float k2
end_header
-1.181741 0.49132368 -0.63242102 255 0 0
-0.93368673 -1.0409762 -0.18750316 255 0 0
0.26533896 0.098054394 -0.41505551 255 0 0
-0.26668593 -0.39637497 -0.85435551 255 0 0
0.55805331 -0.20817542 -0.155156 255 0 0
-0.04092012 -0.437796 -0.83115005 255 0 0
-0.79603142 -0.99832338 -0.57181305 255 0 0
-0.18467134 0.062648833 -0.51045573 255 0 0
0.33363789 -0.11424411 0.49379224 255 0 0
0.47481114 -0.73777097 -0.59246182 255 0 0
0.4553996 -0.96632779 0.12236867 255 0 0
0.81593382 -0.87153345 -0.27490172 255 0 0
-0.92085868 -0.6451568 -0.1566875 255 0 0
0.32883579 0.36596534 0.0041397079 255 0 0
-0.75634646 -0.88767415 -0.32024714 255 0 0
-0.47645944 0.32199845 -0.38371602 255 0 0
-0.28736791 0.31541571 -0.59838277 255 0 0
-0.60774285 -0.50221258 -0.68098867 255 0 0
-0.61930078 0.12736668 0.27574492 255 0 0
-0.57673442 -0.78537732 -0.60556757 255 0 0
-1.0263985 0.12431838 -0.19204627 255 0 0
-1.0681444 -0.12618394 -0.59722257 255 0 0
-0.0028087993 0.57652277 0.58892119 255 0 0
-0.73667413 -1.1465878 -0.32829869 255 0 0
-0.51765066 0.89687234 -0.10328867 255 0 0
-1.3818153 0.1155304 -0.29372481 255 0 0
-0.78902584 -0.5342679 -0.25686869 255 0 0
-0.14345679 0.44792697 0.20452979 255 0 0
-0.74857467 -0.68280172 -0.21816705 255 0 0
-1.0929316 0.47141263 -0.16917908 255 0 0
-0.87315255 0.28505927 -0.37510875 255 0 0
-1.0201253 0.05572243 -0.14883456 255 0 0
0.57854408 -0.44300124 -0.23181979 255 0 0
-0.25896129 -0.97058165 -0.17550094 255 0 0
-1.4731004 -0.70294005 -0.44791687 255 0 0
-0.81028759 -1.0987843 -0.31496376 255 0 0
-0.14181912 0.92382133 -0.47937447 255 0 0
-0.4436653 -0.82849312 -0.7904442 255 0 0
-0.93982106 0.49889615 -0.260077 255 0 0
-0.90610498 0.031543277 0.34121713 255 0 0
0.6092028 0.43586788 0.3293364 255 0 0
0.11892485 0.98691732 0.11854573 255 0 0
-0.95156848 -0.50377697 -0.32602972 255 0 0
0.1007053 0.43105495 -0.24660139 255 0 0
-0.16208059 -0.15709481 -0.72728819 255 0 0
0.34488934 -0.55274534 -1.0841904 255 0 0
0.010112296 -1.0830443 -0.13169694 255 0 0
-0.21164736 -1.1671753 -0.56842387 255 0 0
-1.0493665 -0.59719032 -0.43612608 255 0 0
0.70264518 0.047510426 0.16938202 255 0 0
0.32799557 0.021329695 -0.15419209 255 0 0
-0.30838302 0.73284227 0.00992171 255 0 0
-0.76333386 -0.71290594 -0.49277928 255 0 0
-1.120037 0.51618904 -0.53408629 255 0 0
0.71428537 -0.31265438 0.17663924 255 0 0
-0.30227914 0.47971544 -0.36808059 255 0 0
-0.79180235 -0.94843519 -0.52391452 255 0 0
-0.59315991 0.87656319 -0.5419839 255 0 0
-0.28186491 -1.0205328 -0.28891391 255 0 0
-1.5312215 0.22584285 -0.59560537 255 0 0
-0.87008196 0.24365938 -0.49317795 255 0 0
-0.66336697 0.27024138 -0.47261405 255 0 0
0.63549083 -0.59887588 0.099160284 255 0 0
-0.57012838 -0.013709188 -0.83096331 255 0 0
-0.43496272 0.97579825 -0.66569179 255 0 0
-0.18088396 -0.33310771 -0.52172869 255 0 0
-0.20387584 0.29734707 -0.2443236 255 0 0
-0.92247432 -0.81014174 -0.33766431 255 0 0
-0.59920532 -0.59373015 -0.53294671 255 0 0
0.89723235 -1.058571 -0.22284573 255 0 0
-0.15042017 1.0747391 -0.34782395 255 0 0
0.22010395 -1.2342128 -0.15301043 255 0 0
0.39525226 -1.2102144 0.010196312 255 0 0
-1.217484 -0.17985529 -0.26616636 255 0 0
0.47960609 -0.68878502 -0.49858442 255 0 0
-0.48242763 0.61149484 -0.83002967 255 0 0
-0.71992356 0.47089279 0.011512523 255 0 0
-1.0062722 0.092863515 -0.19889516 255 0 0
0.39182165 0.052574918 0.64495069 255 0 0
-0.64265287 -1.113855 -0.36463133 255 0 0
-0.15590036 0.86545599 -0.056575775 255 0 0
-1.0258962 0.81854129 -0.42707202 255 0 0
-0.52901876 -0.534733 -0.56922132 255 0 0
-0.29561317 0.87442625 -0.38618731 255 0 0
-0.40326187 1.1220826 -0.75557399 255 0 0
0.44191766 -0.065529242 -0.38209093 255 0 0
-1.0526683 -0.50023168 -0.62526715 255 0 0
-1.119101 -0.25214395 -0.35798025 255 0 0
-0.34717432 0.58518636 0.046663366 255 0 0
0.72231007 -0.8403697 0.35783419 255 0 0
-0.25060785 0.24923679 0.0027366418 255 0 0
-0.54804856 -0.78906369 0.033190131 255 0 0
-0.77112126 -0.85719883 -0.22763421 255 0 0
-1.0835819 -0.084813848 -0.23418567 255 0 0
-1.0489905 0.13969867 -0.2548362 255 0 0
-0.38335499 -0.04258785 -0.72026676 255 0 0
0.29520881 -1.1535583 0.077266552 255 0 0
-0.87447906 -0.47208303 -0.277695 255 0 0
0.21569055 0.23506993 0.67728609 255 0 0
-0.87715882 -0.75964224 -0.25635946 255 0 0
-0.34486628 -0.39985684 -0.66751105 255 0 0
0.50588733 -0.83681971 -0.34759381 255 0 0
-0.82058311 -0.75865817 -0.67883438 255 0 0
-0.055051785 0.32127604 -0.12649508 255 0 0
-0.63042432 0.96258456 -0.63433462 255 0 0
-0.56268805 0.30108252 -0.4698149 255 0 0
-1.0461472 -0.76828253 0.018915197 255 0 0
-0.77713847 -0.62411696 -0.47176427 255 0 0
-0.91978598 0.46879524 -0.36100322 255 0 0
0.66345537 -0.14567322 -0.18365626 255 0 0
-0.45318729 -0.16258818 -0.6855008 255 0 0
0.3060371 -1.1648982 0.031173969 255 0 0
-0.37200323 0.099515207 -0.79205197 255 0 0
-0.2563889 -1.0924318 -0.29132798 255 0 0
-0.4792608 0.39182505 0.69510704 255 0 0
-1.0405473 -0.54344618 -0.7355625 255 0 0
-0.95438433 -0.11360046 -0.4329946 255 0 0
-0.02070635 -1.0723131 -0.58053184 255 0 0
-0.79635501 -0.65361416 -0.14905067 255 0 0
1.1704583 -0.71189433 -0.25186309 255 0 0
-0.97843391 -0.62028456 -0.32542339 255 0 0
-0.55464184 -0.05916173 -0.76137567 255 0 0
-0.17307867 -1.4900191 -0.66706771 255 0 0
-0.3253659 0.89744842 -0.65123117 255 0 0
0.091591157 0.38943806 -0.065460369 255 0 0
-0.74729449 -0.85071003 0.13486359 255 0 0
-0.25243518 -0.21275283 -0.76576996 255 0 0
0.1062687 0.27339745 0.34869823 255 0 0
-0.52564269 0.60556275 -0.18026097 255 0 0
0.45305943 -0.1239071 -0.11247249 255 0 0
-0.36747965 0.15464301 -0.79993474 255 0 0
-0.13733575 0.63163078 0.4759191 255 0 0
-0.12919199 0.74828237 0.46186754 255 0 0
-0.31036854 0.24437107 0.30635917 255 0 0
0.5834443 -0.45474705 0.46760371 255 0 0
0.009130951 0.65959597 0.25720572 255 0 0
0.26133719 0.42561951 0.17091127 255 0 0
0.50283009 -0.030519102 -0.033020195 255 0 0
-0.4653213 0.17595845 -0.56564337 255 0 0
-0.96418518 0.67795372 -0.40620348 255 0 0
-0.43664789 0.92363328 -0.5925374 255 0 0
0.03983539 0.28252953 -0.010302657 255 0 0
0.84869635 -0.32600367 0.24836104 255 0 0
-0.50108385 -0.43792564 -0.85747057 255 0 0
-0.26670745 -1.1585159 -0.73570466 255 0 0
-0.16810369 0.35967416 -0.53021276 255 0 0
-1.0377759 0.87857008 -0.17359224 255 0 0
-0.29779747 -0.23108156 -0.64599156 255 0 0
0.28069973 0.9830572 0.62751544 255 0 0
-0.12836041 0.37994862 0.074770883 255 0 0
-1.1079545 0.1313445 -0.24849917 255 0 0
-0.99840242 -0.40700841 -1.2658496 255 0 0
-0.58203685 -0.82190865 0.081319928 255 0 0
-1.3513654 -0.44566497 -0.62724912 255 0 0
-0.58372349 -0.16041985 -0.68798298 255 0 0
-0.98279208 0.60222811 -0.26971126 255 0 0
-0.033711579 0.92203295 0.040030304 255 0 0
-0.71962672 0.61760581 0.24609362 255 0 0
-0.01486399 -0.14285943 -0.83940417 255 0 0
-0.81499028 -0.028959526 -0.79528904 255 0 0
0.71811312 -0.62104982 0.12363078 255 0 0
-1.0925547 0.3243489 -0.010937178 255 0 0
0.42022085 0.29912186 -0.21911731 255 0 0
0.7618202 -0.25977781 0.078203537 255 0 0
0.062425654 0.49909788 -0.30469415 255 0 0
-0.13631527 1.0386357 0.097167723 255 0 0
-0.76106161 -0.93639702 -0.54908782 255 0 0
-0.39548075 -0.95597976 -0.63344461 255 0 0
-0.9602887 -0.44366995 -0.33018076 255 0 0
-1.2720538 -0.78941756 -0.0079651643 255 0 0
-0.35101777 0.42729086 0.34484789 255 0 0
0.5199315 -0.16142103 -0.35920069 255 0 0
0.12890047 0.10690331 -0.23849106 255 0 0
0.13241629 -1.7503036 -0.1679531 255 0 0
0.058126822 0.30798903 -0.19860153 255 0 0
-1.1335592 0.53841591 -0.30056763 255 0 0
-0.65796137 -1.0902056 -0.89167053 255 0 0
-0.68785065 -0.83332348 0.051671792 255 0 0
0.90530413 0.12228516 0.072864823 255 0 0
-0.5228914 -0.95987874 -0.28884503 255 0 0
0.97104383 -0.22764586 0.37058356 255 0 0
0.47288862 -0.82034802 0.59273565 255 0 0
0.094988316 0.12566701 0.50245553 255 0 0
-0.099218182 1.0746623 -0.49095428 255 0 0
-0.68632263 0.34829727 -0.46871755 255 0 0
-0.14934514 -0.3557027 -0.71400219 255 0 0
0.051437803 0.07227578 0.51485354 255 0 0
0.028405553 -1.2514842 -0.63525569 255 0 0
-0.47045568 0.44017211 -0.97110265 255 0 0
-0.29262093 0.32089728 -0.01458195 255 0 0
-0.57928693 0.48116565 -0.56262088 255 0 0
0.56941545 -1.0402381 -0.28811556 255 0 0
0.4984836 -0.29619503 0.48648539 255 0 0
-0.34244037 0.53484982 -0.12316102 255 0 0
-0.85915846 0.99760646 -0.20049402 255 0 0
-0.36940745 -0.68489832 -0.93689799 255 0 0
0.63242811 -0.17028746 0.42590943 255 0 0
-0.15696266 0.26957318 0.05936728 255 0 0
0.4545857 -1.3598483 -0.39820585 255 0 0
0.40370512 -0.81153673 0.48249504 255 0 0
0.35417783 -1.0747602 -0.26878467 255 0 0
1.2265582 -0.28444555 0.72103256 255 0 0
-0.51589936 -0.7831881 0.016225565 255 0 0
-0.083084345 0.97463518 -0.26553831 255 0 0
0.62812304 -0.82654172 -0.71457458 255 0 0
-0.85802799 0.65359956 0.16631888 255 0 0
-0.066561975 0.96117204 -0.2001432 255 0 0
0.57549828 0.021473954 -0.31532139 255 0 0
-0.23029859 0.46858719 0.028150648 255 0 0
0.49322295 -0.9906956 -0.13659118 255 0 0
-0.92175055 1.0376199 -0.47396147 255 0 0
0.52571815 -0.85110825 0.32870069 255 0 0
-0.77988839 -1.0012298 0.10713221 255 0 0
-0.0041500228 0.24346329 -0.6371119 255 0 0
-0.21091987 0.1632928 0.22303717 255 0 0
-0.51533961 -0.72245854 -0.99597239 255 0 0
1.0258234 0.11155349 0.0034335142 255 0 0
-0.8776629 -0.60270196 -0.1552013 255 0 0
0.91489208 -0.61704546 -0.33275938 255 0 0
-0.24493578 1.0968409 -0.28014967 255 0 0
-0.43528947 0.56403893 0.15800568 255 0 0
-0.45551148 -0.99304783 -0.60983294 255 0 0
0.44223806 -0.28467965 -0.98926359 255 0 0
-0.55740672 0.64853889 0.21256959 255 0 0
-0.11514485 -0.75715989 -0.63776106 255 0 0
0.0010688743 0.25715375 0.37652746 255 0 0
0.93015856 -0.68170851 -0.1454211 255 0 0
-1.2022367 -0.4267644 -0.35342103 255 0 0
0.42883262 -0.68096626 -0.9217447 255 0 0
0.14767525 -1.5433849 -0.24720126 255 0 0
-0.83780104 -0.46209139 -0.47147727 255 0 0
-0.81425118 0.33419126 -0.57582706 255 0 0
-1.4525386 -0.25524449 -0.53053802 255 0 0
-0.0855757 -0.12527142 -0.71075028 255 0 0
-0.61999422 0.72042632 -0.91963166 255 0 0
0.63069016 -1.0223941 0.46574369 255 0 0
-0.085826181 0.33260071 -0.057727333 255 0 0
-0.67915332 0.42367008 0.17803083 255 0 0
-1.1605299 0.54760087 -0.11429659 255 0 0
0.068158567 -0.78757548 -0.83232641 255 0 0
-0.51951164 0.83164889 -0.4497284 255 0 0
0.6937654 -0.69374967 -0.043430153 255 0 0
-0.61088949 0.65491873 0.10685414 255 0 0
-0.30589122 1.1406907 -0.49819776 255 0 0
-0.041614268 0.36662188 0.15505429 255 0 0
0.79541141 0.081531867 0.84051299 255 0 0
0.58848757 -0.61291152 0.5167169 255 0 0
-0.77642739 -0.39423645 -0.49008065 255 0 0
-0.39527705 0.63446629 -0.89951169 255 0 0
0.76985174 -0.81955552 0.48753303 255 0 0
-0.0020345419 0.46620885 -0.32855237 255 0 0
-0.17946295 -1.1516672 -0.41682801 255 0 0
0.85757923 -0.22117901 0.055769105 255 0 0
0.69512731 -0.3848421 -0.48511472 255 0 0
0.0038881646 -0.82880175 -1.003762 255 0 0
0.54593682 -0.93258876 -0.29482913 255 0 0
-0.88539165 0.89501357 -0.31936756 255 0 0
0.59455734 -0.73628557 0.44392514 255 0 0
-0.00090337667 1.0984501 -0.39156917 255 0 0
0.71150362 -0.40042296 0.56711125 255 0 0
0.61637414 0.034874413 0.24439387 255 0 0
-0.83611572 1.186991 -0.89092964 255 0 0
0.33325905 -1.1552521 -0.078962393 255 0 0
-0.83290982 -0.35841367 -0.90980345 255 0 0
-0.27042288 -1.1069629 -0.5415321 255 0 0
-0.40396774 0.7397505 -0.66941875 255 0 0
0.71381778 -0.59111446 -0.99799299 255 0 0
-0.71833879 0.56303704 -0.27365068 255 0 0
-0.33889404 1.0355192 -0.74673831 255 0 0
-0.21122138 -1.0452185 -0.59617567 255 0 0
0.19768311 0.79503351 0.21965213 255 0 0
-0.61938667 0.90696198 0.14970991 255 0 0
-0.082922369 -0.41536519 -0.60370821 255 0 0
-1.038951 0.60029972 -0.60744202 255 0 0
0.3339811 0.039602902 -0.24776755 255 0 0
0.78277951 -0.46712443 0.3366034 255 0 0
-0.88339299 0.19033684 -0.55265337 255 0 0
-0.54486829 -0.86675388 -0.31876093 255 0 0
-0.56143075 -0.025826328 -0.69700855 255 0 0
-0.28235573 0.81465429 0.21412353 255 0 0
-0.28680718 0.6238687 0.10517944 255 0 0
0.099038616 -1.3252866 -0.34622192 255 0 0
-0.34653217 -1.0632691 -0.13540043 255 0 0
-1.0240477 -0.59819114 -0.37314662 255 0 0
-0.35960868 -0.90044361 -0.83704299 255 0 0
-0.67069232 0.44014004 0.22190228 255 0 0
-1.0164667 0.5573048 0.03146176 255 0 0
-0.44204119 0.21980835 -0.76028043 255 0 0
-0.057301972 0.67268318 0.090449765 255 0 0
-0.031462446 -0.57011956 -1.1557103 255 0 0
0.90228236 -0.36603805 0.65379763 255 0 0
0.36526105 0.22390425 0.22858943 255 0 0
0.56864196 -1.2108173 0.38871497 255 0 0
0.27557769 -0.045609351 -0.76398641 255 0 0
-0.18923371 0.96952921 0.18615367 255 0 0
-0.5607217 -0.96937907 -0.56923831 255 0 0
-0.49729979 0.79838562 -0.38943723 255 0 0
-1.226614 0.16958289 -0.45234224 255 0 0
-0.6646722 0.62876529 -0.39122695 255 0 0
-0.13327919 -0.44931653 -0.82357275 255 0 0
-1.0215908 -0.30812958 -0.47121385 255 0 0
-0.53353351 0.77912623 -0.28532445 255 0 0
-0.73102754 -0.60652572 -0.02237013 255 0 0
-0.57250208 -1.2175744 -0.32499066 255 0 0
0.73998231 -0.54009366 0.0079540834 255 0 0
-1.0611802 0.39146566 -0.17027457 255 0 0
0.58473796 -0.46629411 -0.22826175 255 0 0
-0.0060244245 -0.24423742 -1.0808276 255 0 0
-0.13831021 1.0081398 -0.31930169 255 0 0
-0.90533429 0.0072231004 -0.67881989 255 0 0
-0.57682723 0.16072367 -0.98471427 255 0 0
0.93705422 -0.38938111 -0.23454641 255 0 0
-0.18417375 -0.73687106 -0.66952544 255 0 0
-0.37737775 1.2539685 0.34032133 255 0 0
-0.32127118 -1.4190615 -0.16878022 255 0 0
0.23275357 -1.4041315 -0.51516122 255 0 0
0.044051677 0.23145702 -0.47648907 255 0 0
0.048621353 0.72291183 0.34414676 255 0 0
-0.23566994 -0.90167397 -0.54971176 255 0 0
-0.21688177 0.60657054 0.10672411 255 0 0
-0.11059427 -0.23886786 -0.83406854 255 0 0
0.18786046 0.7359457 0.36491895 255 0 0
0.27740321 0.63472146 0.53102511 255 0 0
0.70606786 -0.83420253 -0.41084436 255 0 0
-0.70111537 -0.78889716 -0.4378843 255 0 0
0.51296121 -0.78798515 -0.89786428 255 0 0
-0.77489334 -0.65235353 -0.4925434 255 0 0
0.096569791 -0.52626508 -0.79745418 255 0 0
-0.55719167 -0.65067416 -0.53922218 255 0 0
0.073729053 0.52240568 -0.090323821 255 0 0
-0.042953562 -1.5984708 -0.17134419 255 0 0
-0.37386748 0.23788905 0.39431641 255 0 0
-1.1467501 -0.13402006 -0.31867224 255 0 0
-0.99013537 -0.84831458 -0.52426034 255 0 0
-0.65089226 -1.4278144 -0.65780193 255 0 0
-0.20799778 1.033976 -0.55126429 255 0 0
-0.87822974 -0.78246361 -0.52431893 255 0 0
0.47152147 -1.1759911 0.36437306 255 0 0
-0.29073495 0.96398515 0.063878022 255 0 0
-0.47439867 0.13962749 0.28698194 255 0 0
-1.1534075 0.34685108 -0.99233311 255 0 0
-0.9043681 -1.4111606 -0.51389068 255 0 0
0.49313217 -0.1026617 0.37811187 255 0 0
-0.58066183 0.80278581 -0.4985522 255 0 0
-0.98156601 0.18587966 -0.019355718 255 0 0
-0.07009913 0.16330542 -0.61281812 255 0 0
-0.84801507 -1.0171348 -0.16884618 255 0 0
-0.78588164 -0.72395712 -0.41693535 255 0 0
-0.30016869 0.84460849 -0.4590621 255 0 0
0.33980265 -0.091278821 -0.16596344 255 0 0
-0.70911783 -0.96554017 -0.40436435 255 0 0
-0.41306481 -0.7366299 -0.58893126 255 0 0
-0.017872239 -0.057366997 -1.0870378 255 0 0
-0.66889977 -0.86958325 -0.039878149 255 0 0
-0.14182018 -1.1971431 -0.028673803 255 0 0
0.5505904 -0.39719787 0.39236471 255 0 0
-0.41399151 0.47395664 -0.39489698 255 0 0
-0.21121998 -0.40344682 -1.0982802 255 0 0
-1.0547068 -0.096620977 -0.01339774 255 0 0
0.091170147 0.60306835 0.6796037 255 0 0
-0.47989854 1.1607385 -0.16771452 255 0 0
-0.83777177 0.53757018 -0.11403633 255 0 0
-0.70079279 -0.78897774 -0.035462379 255 0 0
0.095597059 -0.61457646 -0.82489759 255 0 0
0.55390346 -0.87901622 -0.53762889 255 0 0
0.4685303 -0.93523622 -0.2419378 255 0 0
-0.50466812 -1.1834859 -0.38968217 255 0 0
0.67706633 0.54990983 0.80308747 255 0 0
-0.24108148 1.0580505 -1.0715733 255 0 0
-0.19870117 -1.172207 -0.48362687 255 0 0
0.057740405 -0.23955879 -1.0088688 255 0 0
-0.76911545 0.53599274 -0.37347507 255 0 0
-0.15484354 -0.096312746 -0.91878361 255 0 0
-0.097966313 -1.0607805 -0.58724403 255 0 0
-0.25888565 -1.0039517 -0.55070901 255 0 0
-0.256814 0.73095554 0.047034808 255 0 0
-0.78815228 -0.80955058 -1.3838745 255 0 0
-0.14257482 0.37958616 0.096245892 255 0 0
-0.44587252 0.83033085 -0.099854425 255 0 0
-0.4299309 0.95159245 -0.20044 255 0 0
-1.1216595 -0.53810275 -0.25285855 255 0 0
0.55152762 0.24591452 -0.28645098 255 0 0
-0.66957444 -0.20126139 -0.74950176 255 0 0
-0.044142459 0.36585921 0.35723034 255 0 0
-0.68969685 0.0060623819 -0.65020818 255 0 0
0.12999161 -1.6347864 -0.33493456 255 0 0
-0.42250481 0.61764687 0.1785305 255 0 0
-0.29882511 0.87459338 -0.34856477 255 0 0
0.64539373 -0.41657928 -0.09694387 255 0 0
0.039074589 0.50183564 0.51591885 255 0 0
-0.83191919 0.7314375 0.095634125 255 0 0
-0.1773759 -0.64058471 -0.76225549 255 0 0
-1.4993926 -0.020282077 -0.15801513 255 0 0
-1.3480605 -0.19255535 -0.62298971 255 0 0
-0.098225944 0.76626039 0.4348368 255 0 0
-0.53628051 0.084654853 -0.64488554 255 0 0
-0.48781416 0.85421634 -0.46696013 255 0 0
-0.86112875 -1.1237833 -0.59760147 255 0 0
0.66642064 -0.40993741 0.31489104 255 0 0
-1.4463313 -0.56948024 -0.022163676 255 0 0
-0.2891815 1.2698523 -0.44431174 255 0 0
-0.33049408 0.42170349 -0.44009191 255 0 0
-0.719374 0.015860088 0.17207438 255 0 0
0.53555584 -0.30018106 0.61215341 255 0 0
0.23330167 -0.0318061 0.4745608 255 0 0
-0.098980159 -0.62359458 -0.76814419 255 0 0
-0.13538934 -0.28337276 -0.58123815 255 0 0
0.78587317 -1.3104112 0.26166722 255 0 0
-0.15780634 0.82909685 0.1871568 255 0 0
-0.21462625 0.74412942 -0.01389443 255 0 0
0.61959487 -0.47733626 0.24633411 255 0 0
-0.59289956 0.075990185 0.53276491 255 0 0
-0.050616719 0.11077247 -0.81697083 255 0 0
-0.81941825 0.93042356 0.085351005 255 0 0
-0.41505885 -1.0612688 -0.17055732 255 0 0
-0.0081333658 -0.97594827 -0.2615729 255 0 0
-0.35261557 0.1873571 0.34003046 255 0 0
-0.28697768 -1.2047274 -0.050335094 255 0 0
-0.78534812 -0.60649794 -0.44372177 255 0 0
-0.166476 0.77859598 0.52104491 255 0 0
-0.11012659 -0.42915228 -0.829651 255 0 0
-0.70972443 0.14248513 -0.63364416 255 0 0
0.52083087 -0.29832184 -0.30448443 255 0 0
0.66982216 -0.48878664 0.544909 255 0 0
-0.45977968 0.4390282 -0.69530022 255 0 0
-0.95399565 -1.0259211 -0.53812969 255 0 0
-0.67975461 0.022011472 0.27016914 255 0 0
-0.79845148 0.25534502 -0.31800354 255 0 0
-0.97915494 -0.47707289 -0.36004496 255 0 0
-0.25446597 0.7890448 0.36776835 255 0 0
-0.73103482 -1.3514719 -0.26020452 255 0 0
0.30033079 0.31899515 -0.11070928 255 0 0
-0.35128552 1.0027144 0.60575092 255 0 0
0.55024749 -0.84815723 -0.27023825 255 0 0
-1.0367235 0.86815357 -0.57194304 255 0 0
-0.12429704 -1.2266457 -0.032145198 255 0 0
0.26545325 -0.44232202 -0.72950649 255 0 0
-0.41271946 0.92723054 -0.17704743 255 0 0
0.39806324 -0.065730475 0.45738053 255 0 0
-0.41391203 -1.2817237 -0.23840885 255 0 0
-0.57685125 0.15016174 -0.62286919 255 0 0
-0.42263517 -0.65573835 -0.78089195 255 0 0
-0.73497272 -0.62392187 -0.80483556 255 0 0
-0.70395285 -0.62458628 -0.57432085 255 0 0
-0.090588719 -0.1069372 -0.52868444 255 0 0
-0.44363916 0.71304321 0.19739571 255 0 0
-0.10837837 0.10305727 -0.48770851 255 0 0
-0.7272042 0.44157445 0.090184867 255 0 0
0.84134299 -0.47501335 -0.24916396 255 0 0
-0.54442507 0.60564691 -0.19448368 255 0 0
-0.99140334 0.1454758 -0.77659577 255 0 0
-0.66232324 -0.62850255 -0.39020491 255 0 0
-0.37895069 -0.50705683 -1.3638549 255 0 0
-0.6506443 -0.58803254 -0.84517545 255 0 0
-1.1373104 -0.069360778 -0.26163709 255 0 0
-0.56981748 -0.78803527 -0.62567431 255 0 0
-1.0141711 -0.43199706 -0.036113057 255 0 0
-0.40975988 0.18841971 -0.8573314 255 0 0
-0.36422333 -0.81680197 -0.78888571 255 0 0
-0.73020273 -0.15370572 -0.62421536 255 0 0
-0.33623752 0.093113273 -0.79288256 255 0 0
0.667 0.25988075 0.054848999 255 0 0
-0.27138743 0.60696125 0.21352494 255 0 0
-0.13061136 0.3611494 0.089724019 255 0 0
-0.13235565 -1.5933051 -0.32643187 255 0 0
0.57088536 -0.28397948 0.207826 255 0 0
-0.6732372 -0.32042411 -0.60973096 255 0 0
0.94659156 -0.33412635 0.49328509 255 0 0
0.66139567 -0.55250788 -0.70921111 255 0 0
0.05393951 -0.7770822 -0.32870701 255 0 0
0.0023247933 -1.2380244 -0.45851028 255 0 0
0.64952135 -0.80064619 0.003905559 255 0 0
-0.170151 -0.44786689 -0.76568377 255 0 0
0.53666079 -0.85639006 -0.22967587 255 0 0
-0.46390802 0.28006482 0.46142462 255 0 0
-0.74164367 0.7973969 0.026737934 255 0 0
-0.4053857 0.62682986 0.54111868 255 0 0
-0.50031096 0.97944331 0.0026193135 255 0 0
0.20793413 -0.47430769 -0.17779894 255 0 0
0.52917415 0.091075577 0.11331789 255 0 0
0.68949914 -0.94030088 -0.28054103 255 0 0
0.18263328 0.19164222 0.14015245 255 0 0
-0.081770718 -0.8352381 -0.46803978 255 0 0
-0.36909139 0.52761346 0.37665993 255 0 0
-1.1551868 -0.82499659 -0.32804981 255 0 0
0.41007003 -0.15013318 -0.38880986 255 0 0
-0.85616225 -0.72157794 -0.48485407 255 0 0
-1.1969812 -0.05787611 -0.27920687 255 0 0
-0.61808014 0.78386676 -0.05488719 255 0 0
0.30601388 0.203917 -0.035577193 255 0 0
-0.59172207 -1.0823727 -0.28152809 255 0 0
-0.46235853 -1.1437576 -0.11892182 255 0 0
0.29773048 0.12076855 -0.11925155 255 0 0
0.023040049 0.56899434 0.030418834 255 0 0
-0.18987396 0.19591168 0.11591394 255 0 0
-0.99954063 0.74872214 0.3730334 255 0 0
0.82822371 -0.74649316 0.45989844 255 0 0
-0.24829128 0.91244763 -0.22639695 255 0 0
0.48348847 0.084409215 -0.25164631 255 0 0
-0.70119244 -0.76591438 -0.10599487 255 0 0
-1.0773308 -0.99730903 -0.40873501 255 0 0
-0.60540456 -1.0009714 -0.1956315 255 0 0
0.61177677 -0.23261556 0.53748763 255 0 0
-1.0092266 0.13358803 -0.35542616 255 0 0
-0.94921249 0.97075927 0.14070603 255 0 0
-1.1726089 0.21974652 -0.56163484 255 0 0
0.14700787 0.33820727 -0.82354438 255 0 0
-0.26198357 0.34000915 -0.10047968 255 0 0
-0.11282148 -0.77170092 -0.82346725 255 0 0
-1.028807 -0.80995315 -0.058740418 255 0 0
-0.50201946 -0.43908975 -0.68958801 255 0 0
0.84598297 -0.39431578 0.23296613 255 0 0
-0.2097591 0.98055285 -0.81078166 255 0 0
-0.80074829 0.66075712 0.17871509 255 0 0
-0.52497214 0.78633714 0.27141532 255 0 0
1.2720995 -0.15260509 0.11844227 255 0 0
-0.17611852 -1.0635896 -0.51769835 255 0 0
-0.064479716 0.82189918 0.27422553 255 0 0
0.046074409 0.79509979 0.60952997 255 0 0
0.51060808 -0.81755239 -0.66051382 255 0 0
-0.014638705 -1.3027065 -0.89762932 255 0 0
-1.1056027 -0.95416135 -0.38148609 255 0 0
-0.45753324 -1.0556223 -0.59186971 255 0 0
-0.34972566 -0.31084949 -1.1132939 255 0 0
-0.27330545 0.61715764 0.12007875 255 0 0
-0.23396897 -1.0395907 -0.60753101 255 0 0
-0.63139343 -0.67497599 -0.60853207 255 0 0
-0.38927418 0.35408491 -0.28360859 255 0 0
-0.16699167 1.0592757 -0.26546618 255 0 0
-0.26809454 -0.22019872 -0.63557678 255 0 0
0.58978313 -1.0392231 -0.33011085 255 0 0
0.62283742 -0.35689682 0.047174461 255 0 0
-1.0057902 0.88341051 -0.73470294 255 0 0
-0.42017984 0.61313778 0.1089064 255 0 0
-0.66947359 0.68919712 0.28825966 255 0 0
-0.35196269 -1.1251397 -0.76119089 255 0 0
-0.3428801 -1.0348965 -0.089402512 255 0 0
-0.28022242 0.22445157 -0.91987163 255 0 0
-0.52531713 0.34878445 0.21444343 255 0 0
-0.38219899 0.80245477 -0.31158426 255 0 0
0.29304555 0.045176815 -0.32544687 255 0 0
-0.32569411 1.2448364 -0.24095231 255 0 0
-0.99967146 -0.86324358 -0.20145601 255 0 0
-0.62732053 0.43914005 0.21058777 255 0 0
0.88849282 0.15519446 0.26856914 255 0 0
0.49388802 -0.93243831 -0.90553659 255 0 0
-0.83203644 -1.2105621 -0.27765152 255 0 0
0.40037116 0.13548234 0.50126916 255 0 0
0.72446364 -0.36903214 0.44094944 255 0 0
0.42877677 0.14212097 0.21839197 255 0 0
-0.99661779 0.78123391 -0.70809656 255 0 0
0.12455577 -1.0030881 -0.4392404 255 0 0
-1.0611674 0.58639491 0.21067233 255 0 0
0.79954273 -0.72010732 -0.49979135 255 0 0
-0.11253246 -0.9799574 -0.69072789 255 0 0
-0.15463407 -0.43189588 -0.55557179 255 0 0
0.090627387 -1.1140181 -0.46803194 255 0 0
-0.056917667 -0.99374819 -0.54804569 255 0 0
0.70895332 -1.2929591 -0.38247174 255 0 0
-0.34797338 0.56024534 0.37827259 255 0 0
-1.3582126 0.30784291 -0.088360682 255 0 0
-0.016937891 0.90440077 0.10753226 255 0 0
-0.53703243 0.69837123 -0.32014462 255 0 0
-1.2154403 -0.25457138 -0.9025842 255 0 0
0.12435193 0.021159478 -0.38864857 255 0 0
0.85797203 -0.74921089 -0.19975194 255 0 0
-1.0578228 0.29485571 -0.62278247 255 0 0
-0.11480717 -0.92981517 -0.59660792 255 0 0
0.14587981 0.16294985 -0.072067417 255 0 0
-0.16477677 -0.0089286966 -0.59421468 255 0 0
0.28613105 1.1097444 -0.097924188 255 0 0
-0.2952992 1.5220083 -0.83806753 255 0 0
0.49417526 -0.1628705 0.53422165 255 0 0
-0.90222991 -0.66856962 -0.022738755 255 0 0
-0.87792683 -0.052751914 -1.1653767 255 0 0
1.0494889 -0.23303333 0.16203946 255 0 0
0.75942177 -0.71805525 0.4015398 255 0 0
-1.2279866 0.50416172 -0.092029296 255 0 0
-1.5196661 0.74786532 -0.59450078 255 0 0
-0.060636409 0.69320297 0.26759896 255 0 0
0.28202173 -0.24234621 -0.59549963 255 0 0
-0.082910329 -1.2613522 -0.032090317 255 0 0
-0.91056788 0.61669856 -0.27438098 255 0 0
-0.40075397 0.2536253 0.20237553 255 0 0
0.88888204 -0.77110517 0.17439559 255 0 0
-0.37084746 0.53784019 0.059631225 255 0 0
0.1001481 1.0831363 -0.36807188 255 0 0
0.64444757 -0.98142654 0.14397249 255 0 0
0.7463851 0.23514298 0.46363249 255 0 0
-0.71973747 -0.60360676 -0.53486013 255 0 0
-0.64315242 -0.73697138 -0.61809713 255 0 0
0.51234412 -0.17332307 0.10484114 255 0 0
0.39889494 0.12439751 0.63710439 255 0 0
0.095821612 0.25968191 -0.36984736 255 0 0
-0.92860216 0.34224421 0.13649373 255 0 0
0.12252235 0.34579387 -0.67440337 255 0 0
-0.088421509 0.69298577 0.22200239 255 0 0
-0.47005627 0.23213463 -0.72772998 255 0 0
0.6166963 -0.71432555 -0.27182159 255 0 0
0.22649838 1.01712 0.16325134 255 0 0
-0.63507551 0.031258687 -0.62363082 255 0 0
0.77194238 -0.89666116 -0.6158272 255 0 0
-0.68792826 -0.98764116 -0.74054819 255 0 0
-0.570611 -1.2213354 -0.85661405 255 0 0
-0.69742531 0.37370577 -0.39846808 255 0 0
0.26752007 -1.1772556 0.20351563 255 0 0
0.46547824 -1.0408099 -0.25389615 255 0 0
0.17311552 1.0988977 0.13215499 255 0 0
-0.022913428 -0.0027611696 -0.51611841 255 0 0
-0.21364762 0.48771235 0.045560658 255 0 0
0.23289037 -1.5837942 -0.15578152 255 0 0
-0.80721343 -0.52085543 -0.49369755 255 0 0
0.05080587 0.43114945 0.39782229 255 0 0
-0.18677886 0.37306896 0.20059694 255 0 0
-0.53808177 0.094435915 0.24575192 255 0 0
-0.73100573 -0.93291777 0.43946579 255 0 0
-0.80365807 -0.74266124 -1.1896454 255 0 0
0.14890271 0.79778272 0.21337754 255 0 0
0.29280984 -0.55794477 -0.84837675 255 0 0
-0.13769284 -1.3297795 -0.075214177 255 0 0
-0.052775919 0.65379298 0.19232273 255 0 0
1.0183337 -0.05987674 0.33816147 255 0 0
0.30221155 0.38853592 -0.25089365 255 0 0
0.7477982 -0.39304838 -0.1867733 255 0 0
-0.14651348 1.0062582 0.7450372 255 0 0
0.17562608 -1.5200621 0.25126383 255 0 0
-0.56655711 0.98369724 0.46225545 255 0 0
-0.69778913 1.0637827 0.53245091 255 0 0
-0.63686055 0.86419618 -0.40308517 255 0 0
-1.0084493 0.026489025 -0.090385079 255 0 0
-0.55533135 0.73195696 0.10272475 255 0 0
0.36077842 0.34817719 -0.92376661 255 0 0
-0.11349835 -0.14918962 -0.53623128 255 0 0
0.32074723 0.69324726 0.27569655 255 0 0
-0.23479694 -0.82546556 -0.62521273 255 0 0
0.030742403 0.056595668 -0.41512087 255 0 0
-1.0246755 -0.8644461 -0.071940668 255 0 0
0.15125532 0.15807651 -0.27036503 255 0 0
-0.75349826 0.91164505 -0.10527741 255 0 0
-0.94112891 0.39491245 -0.38735843 255 0 0
-0.48988339 0.55805176 -0.74406779 255 0 0
-0.1625239 1.0800301 -0.56318635 255 0 0
-0.10056242 1.1942542 -0.13629751 255 0 0
-0.99678457 0.50193131 -0.12682149 255 0 0
-0.84598809 0.44643161 -0.096878029 255 0 0
-0.15868366 -1.2596248 -0.013535729 255 0 0
-0.29382029 0.43536028 -0.23866072 255 0 0
-0.44095388 0.50040805 -0.81087893 255 0 0
0.38641244 -0.3926746 -0.43037611 255 0 0
-0.43469736 -0.29246384 -1.0269061 255 0 0
0.041729245 0.072277084 -0.48578098 255 0 0
-1.0658481 -0.66963762 -0.68919265 255 0 0
-0.84844655 1.3194337 -0.31885123 255 0 0
0.2373593 0.10582579 0.16313927 255 0 0
-0.13412684 -0.93550354 -0.65858471 255 0 0
-0.21685214 0.73116624 0.0260035 255 0 0
0.0066127195 -1.2334014 -0.3976576 255 0 0
-0.29864958 1.1131072 0.060299437 255 0 0
-0.40276432 0.51713949 -0.002022017 255 0 0
-0.28261429 0.17170666 -0.98880899 255 0 0
0.6203382 -0.64457506 -0.12140562 255 0 0
-0.12573649 -0.72204393 -0.57418048 255 0 0
0.50390941 -0.8139236 0.3407487 255 0 0
-0.62679708 -1.060389 -0.38355941 255 0 0
-0.94039148 0.21543144 -0.62211376 255 0 0
-0.95957541 -0.25239506 -0.41865382 255 0 0
-0.70379919 -1.1892627 -0.23303258 255 0 0
-1.3073691 -0.468701 0.1968037 255 0 0
-0.37699369 1.11175 -0.30502993 255 0 0
0.086287461 0.49702263 -0.34554181 255 0 0
0.52316773 -0.43166053 -0.49220985 255 0 0
-0.51985508 1.2942448 -0.69146961 255 0 0
-1.0990715 0.039467756 -0.06634786 255 0 0
-0.54065156 -0.41146117 -0.73383069 255 0 0
0.24591273 0.10599439 -0.12688652 255 0 0
0.25886405 0.40016198 -0.081807949 255 0 0
-1.1230358 0.47670123 -0.093966782 255 0 0
0.039069917 -0.53303123 -0.65662473 255 0 0
-0.61302364 -0.53406316 -0.52633727 255 0 0
0.41741544 -0.014364856 -0.070621125 255 0 0
-0.099403821 -0.048347749 -0.60143274 255 0 0
0.57454944 -0.70826125 0.090093814 255 0 0
0.59112608 -0.78519684 0.51682764 255 0 0
0.3443228 0.18907103 0.7897712 255 0 0
0.32106486 -1.0242224 -0.23906986 255 0 0
-0.34208721 0.32219675 0.11984366 255 0 0
-0.05241416 -0.70796889 -0.59518492 255 0 0
0.33491018 0.44727013 0.076982252 255 0 0
0.17249542 0.50696582 0.38905925 255 0 0
-0.97400272 0.40334171 -0.2681109 255 0 0
0.60420418 -0.30693519 -0.32844707 255 0 0
-0.96890748 0.13465708 -0.25681904 255 0 0
-1.0313058 0.071834184 -0.1953389 255 0 0
-0.58177388 0.54267973 -0.89767718 255 0 0
0.13717179 -0.14737996 -0.801292 255 0 0
-0.35840771 0.80039412 -0.20232137 255 0 0
-0.55011469 0.69246578 0.13258488 255 0 0
0.32512456 -0.38185167 -0.53995639 255 0 0
-0.90873963 -0.70181149 -0.33290064 255 0 0
-0.1905185 -0.9497748 -0.59154803 255 0 0
-0.007735949 -0.44083184 -1.3878512 255 0 0
-0.95524818 -0.053945553 0.052074026 255 0 0
-0.47741336 0.30578309 0.11572387 255 0 0
-0.56411165 0.83397657 -0.26585501 255 0 0
0.83380282 -0.4191142 -0.37967837 255 0 0
-0.82867652 0.90447682 0.20740312 255 0 0
0.65447754 -0.85584694 0.35621777 255 0 0
-0.83082712 0.54039937 -0.43737179 255 0 0
-0.6297335 -1.3671048 -0.42550021 255 0 0
0.11875673 0.24733311 -0.0060337447 255 0 0
-0.298895 0.74722016 -0.064791568 255 0 0
-0.25147852 0.68848306 0.41950715 255 0 0
0.24740055 -0.077422954 -0.20440881 255 0 0
0.39219922 -0.75574881 -0.6721549 255 0 0
-0.031704012 0.83343798 0.52973336 255 0 0
1.1053075 -0.39576566 0.52427614 255 0 0
0.47952399 -0.011683397 0.12654692 255 0 0
0.3902815 -0.36531404 -0.57632703 255 0 0
-0.99116862 0.19816865 -0.34644312 255 0 0
-0.9958657 -0.42416313 -0.50019825 255 0 0
0.48569164 -1.2718419 0.21619755 255 0 0
-0.71371293 0.090227947 -0.63191235 255 0 0
-0.18357021 1.4418383 0.20661356 255 0 0
-0.34165546 0.53494942 0.15049918 255 0 0
-0.1308804 -1.2468295 -0.018081207 255 0 0
-0.22925216 0.58792436 -0.4285441 255 0 0
-0.97297913 0.32916674 -0.50297081 255 0 0
0.36082286 -0.33710763 -0.45571765 255 0 0
0.41820413 -0.5127731 -0.8089146 255 0 0
0.1474002 -0.098376043 -0.5581128 255 0 0
-0.10671677 0.73468071 0.39170033 255 0 0
-0.097700886 0.66592693 0.35654873 255 0 0
-0.78753692 0.77766752 -0.64011991 255 0 0
-0.97168094 0.15290356 -0.72914821 255 0 0
-0.57010174 0.10975477 -0.68428785 255 0 0
-0.646465 -0.42544827 -0.6125561 255 0 0
-0.59000933 0.47224966 0.074480705 255 0 0
-0.61209619 0.66678852 -0.56392461 255 0 0
-0.22955358 -0.31945014 -0.66048187 255 0 0
-1.2357599 -0.015290653 -0.034455393 255 0 0
-0.49850646 0.28405052 -0.35809508 255 0 0
-0.038503803 -1.207335 -0.031800233 255 0 0
-0.61044103 0.4094851 -0.44439009 255 0 0
0.074687675 0.82174003 0.34956601 255 0 0
-1.1397403 -0.45658654 -0.20522855 255 0 0
-0.73594028 -0.15074478 -0.67466539 255 0 0
0.066889845 -0.096819647 -0.62972558 255 0 0
-0.32821155 1.1751584 -0.48654819 255 0 0
-0.32838902 0.87830091 -0.37710041 255 0 0
0.73019832 -0.75895548 0.5251143 255 0 0
0.88576978 -0.59699684 0.23382938 255 0 0
-0.28890219 0.84830403 -0.24393284 255 0 0
0.097020566 0.55650848 0.36266106 255 0 0
-0.63932794 -0.79862291 -0.7253378 255 0 0
0.29630855 -0.28648338 -0.50466138 255 0 0
-0.0208156 -0.42347232 -0.87158519 255 0 0
-0.28890699 0.96805978 -0.48408335 255 0 0
0.13489299 -1.3429977 -0.25802264 255 0 0
0.14370993 0.97577745 -0.082037292 255 0 0
-0.9990679 0.22310051 -0.41005838 255 0 0
-0.7550348 0.47806537 0.013421522 255 0 0
0.23705697 0.62552869 0.59945685 255 0 0
-0.22312354 1.0101112 -0.58590215 255 0 0
-0.61413264 0.71979713 -0.053273316 255 0 0
-0.59111995 0.69041044 0.11220826 255 0 0
-0.93917984 -0.065887615 0.16713093 255 0 0
-0.87651706 -0.79762936 0.12622552 255 0 0
-1.3503045 0.096321486 -0.32805678 255 0 0
0.49898583 0.21357335 -0.52082473 255 0 0
-0.49375466 0.93114787 -0.56582522 255 0 0
0.57033372 0.24606876 0.40348697 255 0 0
1.1092893 -0.65418017 -0.35429516 255 0 0
-1.2427139 0.852166 -0.60243702 255 0 0
-0.18758167 -0.19361663 -0.67035586 255 0 0
-0.77852857 0.21595547 -0.22730915 255 0 0
-0.099646531 0.98369539 0.0056897011 255 0 0
-0.040627822 0.21619716 0.55242854 255 0 0
-0.45567769 0.80302513 -0.058850728 255 0 0
-1.3074164 0.032739352 -0.028858563 255 0 0
-0.74956536 -0.50017601 -0.42497429 255 0 0
-0.20030512 0.74622285 0.57605577 255 0 0
0.26789969 0.20477176 0.0099277776 255 0 0
-0.44450906 0.9941842 0.11183081 255 0 0
0.019167682 -1.0014319 -0.46929142 255 0 0
0.64223754 -1.2293317 0.42682028 255 0 0
-0.923675 -0.81504983 0.066992 255 0 0
-0.268987 1.0121304 -0.50970221 255 0 0
-0.2169973 0.20594853 0.038776498 255 0 0
-0.76451743 -0.84973586 0.15330504 255 0 0
-1.0541643 0.26142028 -0.3136121 255 0 0
-0.36084422 1.1175244 -0.27756518 255 0 0
0.3501761 -0.81592995 -0.6581921 255 0 0
-0.098450661 0.78944069 0.20445174 255 0 0
-0.20795128 0.34823802 0.11828753 255 0 0
-0.84649676 -0.72297066 -0.92960232 255 0 0
0.43905553 0.11487216 -0.62535489 255 0 0
0.12795761 -0.16097197 -0.57244742 255 0 0
-1.0219632 0.74872303 -0.37874502 255 0 0
0.1740946 0.75315875 0.45687589 255 0 0
-0.63056803 -0.49865171 -0.63119882 255 0 0
-0.2102498 0.98956102 -0.016329914 255 0 0
-0.33598185 -0.28007475 -0.88635236 255 0 0
-0.99147421 -0.59064329 -0.011064585 255 0 0
0.30796766 0.40745339 -0.27766725 255 0 0
0.65283328 -0.60508072 -0.36041602 255 0 0
0.0073296656 -0.94354624 -0.51675534 255 0 0
0.054233443 0.21621764 -0.24614701 255 0 0
-0.44505572 0.48014092 -0.73659295 255 0 0
0.01591924 -0.96742874 -0.58404619 255 0 0
-0.70918405 -0.17084661 -0.67872715 255 0 0
-0.70771134 0.21746296 -0.019769732 255 0 0
-0.25188109 1.0736412 -0.63813293 255 0 0
-0.90566421 -0.52746505 -0.13875701 255 0 0
-0.24539292 -0.31567064 -0.6855315 255 0 0
1.2846532 -0.39228812 0.17432784 255 0 0
-0.03896847 0.40043643 0.32605353 255 0 0
0.66299653 -0.65801722 0.63910919 255 0 0
0.5992167 -0.43583813 0.2397362 255 0 0
-0.27249247 0.34597543 -0.13784461 255 0 0
-1.5108509 -0.60607427 -0.30744764 255 0 0
-0.32778373 0.87724823 -0.35568228 255 0 0
-0.26988009 -0.30490437 -0.71221095 255 0 0
0.076693997 0.68912679 0.58641618 255 0 0
-0.81191182 -0.57781267 -0.018831018 255 0 0
-0.6714285 -1.0270813 -0.37010065 255 0 0
-0.099475764 -0.45246851 -0.91235161 255 0 0
-0.80234474 -0.59416664 -0.39868784 255 0 0
-1.132767 0.23282178 -0.42926243 255 0 0
-0.34580284 0.73370498 -0.28874129 255 0 0
-0.64253485 -0.80755383 -0.76669997 255 0 0
0.09688928 -0.60053915 -0.3464509 255 0 0
-1.2700642 -0.13912795 -0.21611415 255 0 0
-0.52399552 -1.1009586 -0.14250432 255 0 0
0.66085899 -0.21069705 -0.06912598 255 0 0
0.2973935 0.28964424 0.47533479 255 0 0
-1.1574359 0.25535557 -0.054084189 255 0 0
-0.73970002 -1.0352795 -0.87238681 255 0 0
-1.1090695 -0.77155399 0.096774198 255 0 0
0.59019119 0.13665089 -0.64837104 255 0 0
0.38155985 1.0741432 0.273756 255 0 0
-0.64542139 -0.11083915 -0.75210804 255 0 0
0.79985625 -0.030739274 0.086809322 255 0 0
0.29562253 -1.2395946 -0.15162081 255 0 0
0.14563093 -0.55311054 -0.84134293 255 0 0
-0.23187786 1.0165322 -0.076787315 255 0 0
0.066333488 0.053177275 0.48812509 255 0 0
-0.54372895 0.29906964 -0.6509034 255 0 0
0.56966615 -0.86690265 0.24459857 255 0 0
-0.6604144 0.42264664 -0.41546813 255 0 0
-0.48948175 -0.48859584 -0.88391095 255 0 0
0.030443864 -0.62851429 -0.79617745 255 0 0
-0.22634831 0.22512326 0.67579907 255 0 0
0.65363973 -0.76233119 0.57782662 255 0 0
-0.22287811 -0.23404717 -0.71828949 255 0 0
-0.57855207 -0.75224113 -0.64056075 255 0 0
-0.89817792 -0.69407654 -0.0041462835 255 0 0
0.54182172 -0.28104144 -0.39175254 255 0 0
-0.62713808 -1.0042375 -0.75554842 255 0 0
-1.0611883 -0.54478663 -0.32643029 255 0 0
-0.33483565 0.074710034 -0.80289865 255 0 0
-1.0358446 0.62576276 0.089179687 255 0 0
-0.32228732 -0.061545745 -0.87897021 255 0 0
0.070697762 0.57474494 -0.10240129 255 0 0
-0.22191396 -1.283619 -0.32441121 255 0 0
0.35544232 -1.3126851 -0.215634 255 0 0
0.42701012 0.14396003 0.16716816 255 0 0
0.63028783 -0.22061993 0.10542756 255 0 0
0.58481359 -0.72033679 -0.29481027 255 0 0
0.26184031 -1.1694919 -0.25974843 255 0 0
0.63418883 -0.81113303 0.14128602 255 0 0
0.5562222 0.49808916 0.12545854 255 0 0
0.95485044 -0.35533553 -0.21027908 255 0 0
-0.40138742 0.89011157 -0.14356677 255 0 0
0.89809453 -0.20212048 -0.55841035 255 0 0
-1.4577113 0.70849174 -4.3173754e-06 255 0 0
0.69134724 -0.50486636 -0.51411319 255 0 0
-0.0099861166 0.027775163 -0.43731213 255 0 0
-0.11561355 0.76160961 0.49816546 255 0 0
-0.032926057 0.66478169 0.16729023 255 0 0
-1.0366552 -0.87931335 -0.46924034 255 0 0
-0.56671256 -1.0696057 -0.38221273 255 0 0
-0.34517813 0.90142387 -0.12282382 255 0 0
-0.16917904 -0.779015 -0.66927737 255 0 0
-1.3598655 0.26381147 -0.46892747 255 0 0
0.3404403 0.28310201 0.82044739 255 0 0
-0.19756439 0.16415496 0.33660379 255 0 0
-0.040628869 -1.0327957 -0.47407365 255 0 0
0.039456006 -0.8943066 -0.49631563 255 0 0
0.60211349 -0.14468127 0.65780956 255 0 0
-0.16224268 0.84339601 0.089643478 255 0 0
-0.19036464 1.2099627 -0.17916356 255 0 0
-0.11999676 -1.1511219 -0.68999434 255 0 0
-0.85768151 -0.63621569 -0.25092536 255 0 0
0.94757044 -0.74725544 0.14984027 255 0 0
0.41223183 -0.99993891 -0.27362382 255 0 0
-0.57985038 0.24764627 0.26398462 255 0 0
0.96739084 -0.30262095 0.54627919 255 0 0
-0.6665957 -0.62304372 -0.56576651 255 0 0
0.36332819 -0.43594113 -0.54803276 255 0 0
-0.17603436 0.86547053 -0.0093709072 255 0 0
-0.092139654 -1.1800309 -0.50835222 255 0 0
-0.41931179 0.46613401 0.3787421 255 0 0
-0.37136054 0.53957647 -0.57698166 255 0 0
-0.89672673 -0.54589707 -0.40184158 255 0 0
0.29874447 0.03178551 -0.26507244 255 0 0
0.88671398 -0.62264198 0.090378635 255 0 0
-0.17190471 -0.44301388 0.1988108 255 0 0
-0.79195738 0.3509253 -0.98154211 255 0 0
-1.1092341 0.33065242 -0.18338776 255 0 0
-0.68713945 0.88370591 0.0040689157 255 0 0
-1.2583044 0.61301225 -0.4180018 255 0 0
-0.10666611 0.72659749 0.59098154 255 0 0
-0.97072667 -0.85852456 -0.07184726 255 0 0
-0.79961222 1.0615128 -0.45686108 255 0 0
-0.35251701 -0.9414975 -0.66663635 255 0 0
-0.45128089 0.70572233 -0.25569215 255 0 0
-0.16984266 -1.3359196 -0.10805011 255 0 0
-1.2032148 0.24930345 -0.36964178 255 0 0
-0.58691895 0.59984297 -0.38355175 255 0 0
0.34892684 -0.83747804 -0.51404202 255 0 0
0.78320915 0.42645696 -0.13209045 255 0 0
0.70048243 -0.12207356 0.23502082 255 0 0
0.14265709 -1.4127117 -0.024193799 255 0 0
-1.0394176 0.050892454 -0.10256429 255 0 0
-0.33082584 0.7252565 -0.11957843 255 0 0
-0.076340839 -1.0365342 -0.72156769 255 0 0
0.77915514 -1.2927462 0.055642869 255 0 0
0.28907561 -0.66200131 -0.088943042 255 0 0
0.66800368 -0.58098453 -0.47519463 255 0 0
-0.30765903 0.21718168 0.28253421 255 0 0
0.70576632 -0.76337677 -0.34790429 255 0 0
-0.24544142 0.74810833 0.57056773 255 0 0
-0.25849649 0.87316722 0.52699959 255 0 0
-0.82825804 -1.293341 -0.46148518 255 0 0
-0.16807032 0.83635157 0.45228148 255 0 0
0.079654947 -1.5180467 0.43234777 255 0 0
-0.078652337 -0.34015128 -0.67076838 255 0 0
-0.24577656 0.37550303 0.26543501 255 0 0
0.14059627 -1.3579898 -0.29286075 255 0 0
-0.0096248193 0.00096873462 -0.80402362 255 0 0
-0.74759489 0.74616051 -0.065645292 255 0 0
0.79111189 -0.19393404 -0.058105949 255 0 0
-1.031891 -0.15296996 -0.34066519 255 0 0
-0.35040113 -0.58202469 -0.66259712 255 0 0
-0.15019524 1.2214894 -0.45653754 255 0 0
-0.85831541 -0.33587044 -1.0657638 255 0 0
-0.37931854 -1.7068413 -0.49910033 255 0 0
-0.22134769 1.0901034 -0.53278989 255 0 0
0.43838015 -0.47046053 -1.2026289 255 0 0
-0.38441733 0.54143417 0.80564147 255 0 0
0.76837605 -0.64071584 0.29513666 255 0 0
0.39134568 0.0097450418 0.69662589 255 0 0
0.79862833 -0.50300497 0.27108958 255 0 0
-0.79659992 0.50144017 -0.33155233 255 0 0
0.468436 -0.19966546 -0.19618216 255 0 0
-0.00078974967 0.86919862 -0.76151156 255 0 0
-0.15027525 0.59832287 0.082743779 255 0 0
-0.8054961 0.9562161 0.1191059 255 0 0
-0.9863798 -0.80023539 -0.017266044 255 0 0
-1.2012267 -0.95874333 -0.87685078 255 0 0
-0.93892503 -0.71071732 -0.0077143731 255 0 0
-0.61296964 0.83268845 -0.62238842 255 0 0
-0.13083085 -0.27542803 -0.72989237 255 0 0
-0.20778887 0.67409784 0.16342199 255 0 0
-1.13986 -0.33869755 -0.19537765 255 0 0
0.5666126 0.26144636 0.22866906 255 0 0
-0.37230161 -0.39649311 -1.0065631 255 0 0
-0.76338232 -0.60600269 -0.1237928 255 0 0
-0.45947552 0.68435144 0.32090014 255 0 0
0.44037864 -0.16114752 0.59162599 255 0 0
0.073869377 0.70628649 0.10246151 255 0 0
-0.4359313 -0.12804459 -0.65967047 255 0 0
-0.10865543 0.69984019 0.22655532 255 0 0
-0.98498273 -0.65601599 -0.6937024 255 0 0
0.85079533 0.78210646 0.48906392 255 0 0
-0.39745316 -0.81416726 -0.38377371 255 0 0
-0.79662704 1.232374 0.70176655 255 0 0
-0.4896864 0.99204856 0.21756177 255 0 0
0.50520307 0.087713212 0.41826704 255 0 0
-1.3812716 -0.0075560366 -0.18303293 255 0 0
-0.30497679 -1.473671 -0.33131611 255 0 0
0.1419587 0.97190553 0.12968747 255 0 0
-0.022886746 0.88863248 0.13090941 255 0 0
-0.7452932 -0.51827264 -0.34176308 255 0 0
-0.50724018 0.83048993 -0.39989081 255 0 0
-0.59417444 -0.13570009 -0.80273193 255 0 0
-0.6652959 0.60103792 -0.45313039 255 0 0
-1.064595 0.1329717 -0.58889973 255 0 0
-0.093209073 0.046821669 -0.46390039 255 0 0
0.10453837 0.060216304 -0.4083477 255 0 0
-0.20404969 -0.045590956 -0.65328366 255 0 0
-1.2495097 0.13269965 -0.51079106 255 0 0
0.0090717804 -0.45411822 -0.90713948 255 0 0
-1.3198385 -0.45834509 -0.60479367 255 0 0
-0.94508952 -0.15406619 -0.88133633 255 0 0
0.10870305 -0.36454165 -0.76131099 255 0 0
-1.1448296 0.0026876891 -0.30774188 255 0 0
0.51907337 0.12070534 0.65111971 255 0 0
-0.063364051 0.71139526 0.55193204 255 0 0
0.84675395 -1.3333101 0.32730442 255 0 0
-0.399086 0.81062293 0.078278616 255 0 0
0.10902356 -1.3085281 -0.30045173 255 0 0
0.11322204 0.48172557 -0.079580165 255 0 0
-1.0716441 0.67302918 -0.40949842 255 0 0
-0.88820571 -0.86311203 -0.74256867 255 0 0
0.97757387 -1.0216094 -0.071782306 255 0 0
-0.44437903 0.20685519 -0.60764599 255 0 0
-1.1185642 0.030842898 -0.088674799 255 0 0
0.44673333 0.065357119 -0.013878399 255 0 0
-1.0303499 -1.0775229 -0.11938076 255 0 0
0.201823 0.25876933 0.11009441 255 0 0
-0.54346883 0.20368192 -0.61741817 255 0 0
0.26813677 0.28656659 0.35611472 255 0 0
-0.23705174 0.95894969 -0.34736058 255 0 0
0.017019736 0.18201512 0.22559145 255 0 0
0.54081738 0.047657978 -0.44343609 255 0 0
-1.0891348 -0.26140776 -0.30636251 255 0 0
-0.26042122 0.59814423 0.010272659 255 0 0
-0.7331965 0.72083676 -0.083328977 255 0 0
-0.23224069 -0.05130766 -0.63484514 255 0 0
-0.93991745 0.43348208 -0.37242812 255 0 0
-0.71176213 0.50002432 -0.36641166 255 0 0
-0.57015258 1.1328249 -0.5890379 255 0 0
-1.2851857 0.63348168 -0.33088529 255 0 0
0.64666373 -0.70289946 0.37039226 255 0 0
-1.0162511 0.18020134 -0.33541372 255 0 0
-0.21897581 -1.3421311 -0.88647681 255 0 0
-0.60723621 -0.76923746 -1.2016364 255 0 0
-0.58458948 0.63353896 0.075361826 255 0 0
-1.1695257 0.018740546 -0.26492739 255 0 0
-0.72092783 -0.020637946 0.28669533 255 0 0
-0.79841375 0.060284816 -0.80127376 255 0 0
-0.1593817 0.12780553 -1.0641659 255 0 0
-0.10838369 0.86818916 0.060896706 255 0 0
-0.32436836 -0.97338623 -1.1766979 255 0 0
-0.77484578 -0.86041248 0.092272468 255 0 0
0.16613589 0.32919228 0.4415749 255 0 0
-0.23840629 -1.2843238 -0.10747531 255 0 0
0.51835728 -0.33372506 -0.49050298 255 0 0
0.091946542 0.19741951 -0.72450274 255 0 0
-0.13032132 0.56337321 0.23162003 255 0 0
-0.47046706 0.18112208 -0.6037758 255 0 0
-0.55997509 -0.18418178 -0.69976854 255 0 0
-0.9698264 -0.10033952 -0.6102612 255 0 0
0.068075605 0.78761029 0.15858294 255 0 0
-0.067773536 0.32418326 -0.13418181 255 0 0
-0.62032002 0.52599108 -0.0066192574 255 0 0
0.041786756 0.41849029 -0.42116249 255 0 0
-0.9098652 0.059152957 -0.63622564 255 0 0
-1.0174677 0.40334341 -0.33771273 255 0 0
-0.64153475 0.63012195 -0.63395786 255 0 0
0.5869537 -0.58962578 0.31381711 255 0 0
0.64011425 -0.70157057 0.24464801 255 0 0
0.52801627 -1.0551845 -0.029013747 255 0 0
-0.78151613 -1.1340127 -0.41375291 255 0 0
-0.8304081 -0.63005203 -0.20717356 255 0 0
-0.75532275 -0.23984914 -0.64691198 255 0 0
0.17299867 0.84193033 0.30869389 255 0 0
-0.74612296 0.45838755 0.01202324 255 0 0
-1.0068218 0.35810593 -0.68665063 255 0 0
0.19301564 0.088877402 0.0075991298 255 0 0
0.41503438 -0.0012864695 0.59826738 255 0 0
0.36519903 0.76619482 0.18114617 255 0 0
-0.16335003 0.57692951 -0.48208371 255 0 0
-0.47760671 0.72859031 -0.19551298 255 0 0
-0.5632683 -0.64767712 -0.72836804 255 0 0
-0.17119868 0.45711589 -0.037772242 255 0 0
0.67554951 -0.78549892 -0.85362965 255 0 0
-0.66080958 0.86409175 -0.23183773 255 0 0
-0.046604726 0.21432123 -0.0040783146 255 0 0
-0.052953016 0.62023062 -0.37408444 255 0 0
-0.99658597 -0.055581313 -0.023422705 255 0 0
-0.38410863 0.45811754 -0.41400266 255 0 0
0.32550159 -1.2557627 0.053081639 255 0 0
-0.80322695 -1.0558907 -0.2223682 255 0 0
-0.52041262 0.21346821 -0.50937456 255 0 0
-0.50792193 0.30501634 -0.044995025 255 0 0
0.20111422 1.2433128 -0.2003324 255 0 0
-0.69225782 -0.58186436 -0.48947254 255 0 0
-0.62896067 0.76629817 0.34890926 255 0 0
-1.0948036 -0.53839993 -0.016187765 255 0 0
-0.23219143 0.41213828 -0.1566949 255 0 0
