ply
format ascii 1.0
element vertex 829
property float x
property float y
property float z
property float nx
property float ny
property float nz
end_header
-0.608171 -0.517864 0.283497 0.640698 -0.420995 0.642082
-0.601471 -0.532009 0.271111 0.518344 -0.461999 0.719637
-0.604408 -0.549 0.265681 0.578278 -0.225423 0.784079
-0.605997 -0.566028 0.259104 -0.719244 0.322781 -0.615224
-0.602784 -0.581374 0.250204 0.826898 -0.425706 0.367442
-0.438273 -0.538604 -0.0237922 -0.519544 0.84853 0.100351
-0.25604 -0.625449 -0.0287751 0.231104 -0.803228 0.549014
-0.244228 -0.638619 -0.0425464 -0.248442 0.846535 -0.470802
-0.230957 -0.650829 -0.0576744 -0.24491 0.894967 -0.372897
-0.213397 -0.66117 -0.0751704 -0.300697 0.928782 -0.21667
0.0267552 0.88332 0.788413 0.718117 0.159295 -0.677446
0.245973 0.133306 0.151783 0.651527 0.716511 -0.249248
0.254244 0.140209 0.144913 0.66617 0.672626 -0.322169
0.250062 0.142844 0.166144 0.74403 0.598568 -0.296877
-0.447753 0.736046 0.699443 0.0218611 0.699929 -0.713877
-0.460321 0.721481 0.684999 0.154627 -0.616781 0.771798
0.193677 0.0364618 -0.195937 -0.291948 -0.941728 -0.167076
0.20563 0.0381953 -0.180497 0.321572 0.939531 0.117788
0.194357 0.0339696 -0.17402 0.305223 0.948234 0.0876985
-0.0136841 0.848141 0.815628 -0.723617 -0.323884 0.60949
-0.454156 0.691829 0.666673 -0.26379 0.475242 -0.839381
0.462206 0.271123 -0.259774 0.752023 0.56201 0.344392
0.471641 0.27508 -0.244607 -0.777458 -0.553244 -0.299134
0.466451 0.265189 -0.237608 0.769733 0.587741 0.249143
-0.453307 0.658513 0.652115 -0.385435 0.298899 -0.872983
-0.455013 0.64115 0.646296 0.45626 -0.220526 0.862088
-0.457742 0.623386 0.640543 -0.480718 0.176914 -0.858843
0.218266 0.104875 0.114655 0.388425 0.845265 -0.366952
0.22367 0.113171 0.129192 0.468988 0.846543 -0.251824
-0.130444 0.742095 0.760693 0.024095 -0.99932 0.027924
-0.119068 0.744148 0.776722 0.0518224 0.977981 -0.202159
-0.136143 0.746475 0.78292 0.111908 -0.947656 0.29904
0.19595 0.0384272 -0.0727359 -0.359507 -0.925866 0.116303
0.252753 0.240856 0.410835 0.437099 0.892335 -0.112617
-0.101886 0.0142405 0.312656 -0.54689 -0.713336 0.438251
0.176046 0.0622181 0.06974 0.549272 0.800979 -0.238186
-0.042859 0.0587361 0.308046 -0.348993 -0.828124 0.438651
-0.0574467 0.0442362 0.300314 0.54773 0.640173 -0.538675
-0.672905 0.363248 0.691839 -0.248876 -0.258507 -0.9334
-0.685526 0.340956 0.691259 -0.263652 -0.0668327 -0.9623
-0.694504 0.320562 0.688928 0.328488 -0.0678096 0.942071
-0.699819 0.301961 0.684919 -0.33732 0.130584 -0.932289
-0.705081 0.283531 0.680656 0.37302 -0.144712 0.916468
-0.708978 0.265748 0.675634 0.388911 -0.109543 0.91474
-0.714249 0.247303 0.671899 0.327408 -0.0883352 0.940745
-0.719268 0.228876 0.667575 0.292109 -0.12153 0.948632
-0.724324 0.210565 0.663124 -0.219911 0.255486 -0.94147
-0.725661 0.193877 0.656676 -0.221608 0.314975 -0.922865
-0.725948 0.177596 0.650214 -0.227663 0.295403 -0.92785
-0.728831 0.160169 0.645454 -0.284868 0.217135 -0.93365
-0.733912 0.142042 0.640915 0.304869 -0.2364 0.922589
-0.735239 0.125324 0.634413 -0.309727 0.398084 -0.86348
-0.732806 0.110296 0.625811 -0.304256 0.534474 -0.788521
-0.727959 0.0960978 0.616219 -0.298909 0.58412 -0.754624
-0.7242 0.081781 0.606778 -0.282313 0.620958 -0.731239
-0.717154 0.0680763 0.596449 0.244095 -0.562975 0.789605
-0.71612 0.0522147 0.589043 0.244726 -0.471666 0.847137
-0.714918 0.0367601 0.581058 0.202 -0.542208 0.815602
-0.709979 0.0228317 0.571073 0.187614 -0.636087 0.748461
-0.703812 0.00937268 0.560439 0.201015 -0.674492 0.71039
-0.695252 -0.00357491 0.548879 0.193677 -0.678977 0.708152
-0.689109 -0.0171574 0.53826 0.194042 -0.686866 0.700402
-0.681718 -0.0301737 0.527003 0.173797 -0.713736 0.67851
-0.673125 -0.0430527 0.515278 0.148147 -0.739168 0.657026
-0.655769 -0.0429003 0.51906 0.132972 -0.735868 0.66394
-0.664398 -0.0551704 0.502917 -0.155105 0.79854 -0.581615
-0.650759 -0.0661388 0.488258 -0.198322 0.788381 -0.582344
-0.640909 -0.079212 0.476136 0.19127 -0.689237 0.698833
-0.627479 -0.0808165 0.48225 0.194322 -0.742638 0.640881
0.410645 0.201141 -0.0134208 0.791223 0.558278 -0.249583
-0.0469438 -0.0104704 0.0913024 -0.197259 -0.977079 0.0800307
-0.0335213 -0.00837686 0.0850063 0.261278 0.96306 -0.0651802
0.0537409 0.0817595 0.278011 0.486159 0.812667 -0.321281
-0.0158044 0.00066716 0.115235 -0.405249 -0.906223 0.120553
-0.0193223 0.00247415 0.13685 0.434675 0.891244 -0.129389
-0.00908126 0.0075096 0.130122 0.484614 0.863426 -0.140163
0.0269729 0.0519691 0.240778 0.279853 0.852792 -0.44094
0.0214897 0.04342 0.226191 0.228418 0.910549 -0.344565
0.07832 0.212107 0.3922 -0.180453 -0.936625 0.300283
0.0638288 0.197517 0.384576 0.524792 0.517322 -0.675997
0.064889 0.210539 0.398561 -0.254069 -0.900927 0.351824
0.0768164 0.212707 0.413955 -0.0701971 -0.997108 -0.0291264
0.120355 0.213677 0.395148 -0.0434635 -0.997679 -0.0524225
0.105842 0.213629 0.401468 -0.0434984 -0.998128 -0.0429955
0.433208 0.354789 0.192747 0.717018 0.696377 0.0307294
0.440238 0.363003 0.185628 0.765247 0.642603 -0.0381944
0.440105 0.361631 0.207452 0.755466 0.651605 0.0684243
0.54792 0.377216 -0.0767363 -0.902942 -0.408978 0.132035
0.545279 0.378224 -0.0551235 -0.896697 -0.405806 0.176793
0.268885 0.266434 0.455755 0.615252 0.693233 -0.375357
0.254073 0.251997 0.447657 0.546777 0.787882 -0.283333
0.105084 0.0802756 0.194381 0.607373 0.732417 -0.307676
0.523115 0.797133 0.299358 -0.942569 -0.258398 0.211648
0.207694 0.251025 0.510769 0.463136 0.766577 -0.44482
0.547283 0.389787 -0.040952 -0.921213 -0.310487 0.234447
0.551876 0.400984 -0.0482784 -0.931068 -0.281458 0.232151
0.259204 0.289673 0.491794 0.721304 0.504107 -0.47497
0.556677 0.448954 0.0301323 -0.917545 -0.383649 0.104524
0.529919 0.454556 0.122961 0.783703 0.497124 -0.372395
0.531082 0.467187 0.137174 0.804957 0.463134 -0.370878
0.523421 0.459766 0.144313 0.797023 0.487013 -0.357172
0.100112 0.00635275 -0.122486 -0.152629 -0.980749 -0.121806
-0.173412 -0.048082 0.119108 0.538739 0.814861 0.21392
0.203009 0.241778 0.495843 -0.434471 -0.835162 0.337254
0.0903892 0.0660692 0.186619 0.590672 0.746607 -0.30608
-0.607391 -0.44424 0.295133 0.11108 -0.446133 0.888046
-0.606469 -0.460584 0.288144 0.392752 -0.111818 0.912821
-0.610624 -0.478349 0.28346 0.470436 -0.0707832 0.879591
-0.616816 -0.497265 0.279683 0.606781 -0.0566443 0.792848
-0.61946 -0.514702 0.274213 -0.565582 0.363415 -0.740302
-0.616296 -0.530134 0.2656 -0.567088 0.426078 -0.704889
-0.616537 -0.546605 0.25868 0.606493 -0.36082 0.708502
-0.614766 -0.562408 0.250287 0.736527 -0.44631 0.508266
-0.0373532 0.0671983 0.322698 -0.266538 -0.886403 0.378481
-0.281814 -0.610788 -0.0201382 0.246374 -0.784637 0.568897
-0.272674 -0.624863 -0.0325049 -0.285483 0.850654 -0.44146
0.00526834 -0.00552083 -0.0792584 -0.0316585 -0.995533 -0.0889523
-0.595116 0.775726 0.807662 0.0453136 -0.832304 0.552464
-0.595048 0.766412 0.786914 0.136622 -0.944097 0.300026
0.516023 0.812219 0.33431 -0.92694 -0.161116 0.338856
-0.498712 0.744888 0.705949 -0.0833184 0.917396 -0.389156
-0.483881 0.734597 0.69115 -0.213222 0.80442 -0.554477
-0.467722 0.734649 0.696092 -0.0853788 0.746785 -0.659563
-0.477575 0.746187 0.70884 -0.00300005 -0.838294 0.545211
-0.476431 0.721753 0.679754 -0.299215 0.663106 -0.68612
0.562254 0.580757 0.118861 -0.954436 -0.0899383 0.284539
0.563811 0.59968 0.120948 -0.935218 -0.212894 0.282918
0.561694 0.59659 0.127836 -0.94992 -0.188517 0.249226
-0.472547 0.707323 0.670034 -0.33837 0.558913 -0.757048
-0.469022 0.692278 0.661235 -0.38294 0.467099 -0.796979
-0.456681 0.706642 0.675676 -0.172782 0.55182 -0.815868
-0.468038 0.67575 0.653661 -0.415593 0.412807 -0.810477
-0.466969 0.659781 0.645774 0.478954 -0.352867 0.803796
-0.467489 0.64309 0.639358 0.545547 -0.239422 0.803154
-0.470312 0.625121 0.633927 0.565646 -0.153757 0.810187
-0.48493 0.609396 0.620703 0.565712 -0.110727 0.817135
0.546069 0.442808 0.0588196 0.885766 0.363917 -0.288068
0.552439 0.451916 0.0516501 -0.890683 -0.367778 0.267251
0.547418 0.455225 0.0730566 -0.861848 -0.447721 0.238253
0.203939 0.0414423 -0.202636 0.324544 0.926216 0.191818
0.2159 0.0430967 -0.187151 -0.358777 -0.921391 -0.149393
-0.406464 0.859223 0.820849 -0.601021 -0.221528 0.767918
0.175103 0.166786 0.269109 -0.581793 -0.613707 0.533743
-0.601712 0.43626 0.672347 0.0530198 0.289024 0.955853
-0.58546 0.43671 0.674451 0.123282 0.282223 0.951395
-0.594068 0.448274 0.670536 -0.129055 -0.287048 -0.949183
-0.0484858 0.0367028 0.279318 0.605248 0.708511 -0.362886
-0.612756 0.44738 0.667565 0.177416 0.280266 0.943385
-0.613993 0.423416 0.676219 -0.131501 -0.351961 -0.926731
-0.617095 0.409501 0.683607 0.0204077 0.371534 0.928195
-0.670862 0.387758 0.682819 0.281693 0.483743 0.828638
-0.68896 0.363492 0.686302 0.301682 0.30229 0.904217
-0.702866 0.340716 0.686714 -0.391139 -0.121085 -0.912331
-0.710428 0.320937 0.683112 0.422811 -0.041949 0.905246
-0.714639 0.302962 0.678735 0.424144 -0.12789 0.896519
-0.718705 0.284978 0.674279 -0.468641 0.150577 -0.870461
-0.722487 0.267285 0.669058 0.488357 -0.0519167 0.871098
-0.728262 0.248989 0.666037 -0.439001 -0.0136993 -0.898382
-0.736566 0.22876 0.663255 0.358975 -0.0413992 0.932429
-0.740489 0.21089 0.658555 -0.279915 0.226845 -0.932839
-0.743021 0.193726 0.652626 -0.28135 0.318276 -0.905286
-0.744374 0.177097 0.646318 -0.306009 0.321662 -0.896042
-0.744821 0.160769 0.640108 0.372415 -0.227154 0.899838
-0.748725 0.143043 0.63532 0.420251 -0.233535 0.876841
-0.750102 0.126309 0.628934 -0.422382 0.394312 -0.816157
-0.747532 0.111329 0.62025 -0.388713 0.527 -0.75576
-0.743937 0.096739 0.611289 -0.36303 0.58467 -0.725514
-0.739061 0.0826874 0.601518 -0.319849 0.604104 -0.7299
-0.734397 0.0682177 0.592166 -0.32963 0.53671 -0.776715
-0.732225 0.0527089 0.584281 -0.342853 0.443807 -0.827942
-0.731104 0.0370599 0.576596 -0.326592 0.525265 -0.78577
-0.72605 0.0232562 0.566459 0.274742 -0.647871 0.710478
-0.719788 0.010051 0.55561 0.236485 -0.692543 0.681513
-0.712474 -0.00322857 0.544619 0.241514 -0.685027 0.687321
-0.70635 -0.0168938 0.53408 0.230164 -0.681119 0.695055
-0.698991 -0.0300644 0.523018 0.216687 -0.71125 0.668708
-0.690438 -0.0428559 0.511225 0.18842 -0.739183 0.646612
-0.681725 -0.0550654 0.499022 0.162767 -0.80009 0.577377
-0.669291 -0.06596 0.48472 0.156015 -0.820679 0.549678
-0.65473 -0.0780693 0.470505 0.161267 -0.634943 0.75554
-0.0910019 0.947307 0.578776 0.0116377 0.895717 0.444473
-0.109748 -0.0172503 0.0352056 -0.060341 -0.996372 -0.0600222
-0.109166 -0.0183821 0.057431 0.11621 0.988651 0.0952083
-0.0604792 -0.0121071 0.0975251 0.18268 0.981071 -0.0642524
-0.0739658 -0.0139583 0.103754 -0.208845 -0.977414 0.0323444
0.312876 1.28964 -0.0160694 0.0837053 -0.987922 -0.130395
0.331339 1.28613 -0.00381697 0.0815446 -0.992646 -0.0894658
0.484474 0.317065 0.00128073 0.670146 0.70888 -0.219986
0.489719 0.325428 0.015777 0.695953 0.69949 -0.162367
0.475121 0.31126 0.00809557 0.635989 0.741434 -0.213992
0.133819 0.215295 0.388716 -0.0543321 -0.997306 -0.049292
0.133428 0.214136 0.410655 -0.0507644 -0.997815 -0.042287
0.528617 0.442033 0.108712 0.778265 0.514968 -0.35932
0.536513 0.449278 0.101678 0.798521 0.509544 -0.320513
0.0313147 0.0616481 0.255148 -0.340125 -0.836948 0.428758
0.58888 0.549186 -0.161598 -0.942192 -0.247119 -0.22629
0.0913953 0.212988 0.407754 -0.0382301 -0.998843 -0.0291602
0.119936 0.212711 0.417157 -0.0413152 -0.997906 -0.0497697
0.14646 0.21455 0.426225 -0.0793556 -0.996379 -0.030528
0.133051 0.213123 0.432681 -0.0819638 -0.995004 -0.0569957
-0.00770785 0.871748 0.822646 0.755059 0.21211 -0.620399
-0.222103 0.974418 0.51397 0.0433692 0.893244 0.447476
0.135158 0.215601 0.36678 0.113529 0.992859 0.0366306
0.421021 0.187267 -0.157169 0.683841 0.724069 0.0899166
0.255285 0.249342 0.257079 0.471849 0.87306 -0.122982
-0.0970367 0.765067 0.823776 -0.149748 -0.813472 0.561996
0.197316 0.0714968 0.0563186 0.446648 0.853576 -0.268166
0.0715271 0.0419636 0.164463 0.386745 0.853243 -0.349865
0.0598556 0.0390212 0.170777 0.346965 0.889747 -0.296589
-0.0240237 -0.00660584 -0.0672384 -0.00570808 0.997611 0.0688499
-0.0255116 -0.00695463 -0.0455005 -0.00789671 -0.999895 -0.0121834
0.234013 0.232233 0.380451 0.356434 0.934099 0.0203488
-0.62371 -0.46001 0.283912 0.237791 -0.404767 0.88296
-0.634752 -0.446585 0.296028 -0.0177893 -0.60092 0.799111
-0.623973 -0.476685 0.277175 -0.342975 0.301055 -0.889794
-0.627851 -0.494488 0.272198 0.562569 -0.181904 0.80649
-0.629563 -0.511708 0.266379 0.598559 -0.311742 0.737932
-0.628929 -0.528085 0.259065 0.647138 -0.395298 0.651883
-0.626516 -0.543609 0.250449 0.70404 -0.446493 0.552242
-0.622074 -0.558252 0.240541 0.75547 -0.521423 0.396716
0.537912 0.38192 -0.201639 0.904486 0.322433 0.27918
0.531636 0.374116 -0.215954 0.915698 0.291921 0.276188
-0.3091 -0.597165 -0.0105145 0.26798 -0.781883 0.56289
-0.298388 -0.610098 -0.0240723 0.290876 -0.808629 0.51138
-0.285384 -0.622918 -0.0388066 0.309243 -0.876028 0.370059
-0.27068 -0.634402 -0.0546416 0.368624 -0.892904 0.25853
0.182312 0.106185 0.191805 0.30548 0.85317 -0.422828
-1.0317 -0.0432538 0.207414 -0.692993 -0.331271 -0.640328
-0.0495585 -0.00941566 0.112881 0.215697 0.974448 -0.0626611
0.335285 0.112623 -0.167111 0.545397 0.823135 0.158084
-0.715613 0.948158 0.626756 0.280463 0.867037 0.41181
-0.592267 0.75927 0.764517 -0.132464 0.957007 -0.258051
-0.513652 0.744908 0.700499 0.202405 -0.94201 0.267673
-0.498893 0.735088 0.685517 -0.312034 0.822852 -0.474921
-0.491259 0.72256 0.673967 0.362259 -0.677201 0.640443
-0.485257 0.708514 0.663779 0.398632 -0.578077 0.711982
-0.482872 0.693033 0.655219 0.446518 -0.484597 0.752188
-0.481611 0.677034 0.647243 0.483327 -0.438995 0.757416
-0.479355 0.661571 0.638924 0.529705 -0.393772 0.751236
-0.478608 0.64534 0.631707 0.574793 -0.26987 0.772517
-0.480179 0.628113 0.625541 0.609866 -0.138471 0.780313
0.369517 0.288331 0.146447 0.406695 0.723023 -0.558423
0.16662 0.0566303 0.0764828 0.548648 0.785615 -0.285997
-0.617293 0.468046 0.66121 0.219986 0.197923 0.955213
-0.632759 0.444885 0.662317 -0.245322 -0.285567 -0.926428
-0.653666 0.418438 0.665156 -0.267533 -0.482495 -0.834041
-0.68305 0.389388 0.674968 0.328955 0.483599 0.811123
-0.704753 0.363767 0.681857 0.404904 0.302408 0.862903
-0.717618 0.341172 0.680632 0.475583 0.119725 0.871486
-0.724208 0.322306 0.677107 0.498952 -0.010654 0.866564
-0.72927 0.303774 0.672463 0.48347 -0.137234 0.864537
-0.730809 0.286906 0.666564 -0.50528 0.172601 -0.845518
-0.733566 0.269804 0.661477 -0.505641 0.0458366 -0.861525
-0.742503 0.249804 0.659609 0.461406 0.0920496 0.882401
-0.751708 0.229709 0.658309 0.402034 0.00550382 0.915608
-0.756573 0.211306 0.653573 0.382268 -0.187408 0.904848
-0.759177 0.194052 0.647966 -0.381986 0.300778 -0.873853
-0.759264 0.177996 0.640924 0.413253 -0.346017 0.842315
-0.759532 0.16178 0.634271 -0.472605 0.274614 -0.837396
-0.761945 0.144283 0.628602 0.529377 -0.235963 0.814912
-0.762403 0.128365 0.622017 0.542723 -0.362233 0.757786
-0.761212 0.112701 0.614256 0.499857 -0.488974 0.714876
-0.757543 0.0981372 0.605252 -0.446696 0.555415 -0.701411
-0.752775 0.0839457 0.595637 0.416693 -0.570274 0.707923
-0.748269 0.0693307 0.586561 -0.408942 0.534507 -0.739641
-0.745907 0.0541746 0.578211 0.446293 -0.463272 0.765638
-0.745725 0.0384253 0.570778 0.458712 -0.495967 0.737293
-0.741149 0.0238465 0.561581 0.400968 -0.614905 0.679055
-0.734687 0.0107759 0.550571 -0.318652 0.683731 -0.656485
-0.727465 -0.00258403 0.539615 0.291113 -0.687037 0.665758
-0.721226 -0.0160476 0.528941 0.292246 -0.687357 0.664931
-0.713917 -0.0293777 0.517965 0.278362 -0.708777 0.64819
-0.706554 -0.0424632 0.5067 -0.248786 0.737473 -0.627884
-0.69783 -0.0548264 0.494608 0.185967 -0.800155 0.570235
-0.685411 -0.0658177 0.480327 -0.154462 0.820896 -0.549793
-0.688274 -0.0776309 0.462457 0.0793185 -0.526724 0.846328
-0.0287386 0.00888377 0.179645 0.444997 0.85954 -0.251334
-0.0400235 0.00493989 0.186219 0.405362 0.887671 -0.218454
0.50135 0.301405 -0.207636 0.796795 0.558731 0.23008
0.496241 0.291223 -0.200146 0.769565 0.613044 0.178737
0.314708 0.279732 0.238418 0.449353 0.877008 0.170112
0.405771 0.258873 0.0632496 0.773813 0.474455 -0.419649
0.406009 0.272573 0.0777543 0.665888 0.637906 -0.386871
0.397773 0.251652 0.0702836 0.78403 0.413177 -0.463231
0.478424 0.272004 -0.0988631 0.81642 0.549688 -0.176919
0.079465 0.153799 0.337541 -0.58733 -0.599663 0.543551
0.092609 0.157304 0.32889 0.577002 0.607161 -0.546281
0.0931013 0.170652 0.343271 0.588968 0.54741 -0.594525
0.169448 0.218497 0.457135 0.268202 0.957631 -0.104931
-0.421152 -0.276695 0.212525 -0.923893 -0.262628 0.278296
-0.420045 -0.265509 0.226169 -0.87704 -0.378738 0.295564
-0.427295 -0.273964 0.237139 -0.874121 -0.34284 0.344053
0.427991 0.192114 -0.120505 0.706167 0.708026 -0.00516531
0.435867 0.19945 -0.127468 0.730879 0.682452 -0.00865948
0.434441 0.199207 -0.10585 0.754763 0.654835 -0.0390503
-0.0332995 0.852304 0.844285 0.722377 0.329825 -0.607772
0.323149 0.123076 0.0418161 0.681855 0.702746 -0.203031
0.309273 0.108478 0.0341194 0.572867 0.803345 -0.162664
0.591558 0.544684 -0.139181 -0.913309 -0.381674 -0.142097
0.597256 0.553399 -0.124819 -0.906272 -0.411024 -0.098648
0.0243364 0.067529 0.276199 0.346912 0.881245 -0.321028
0.0111161 0.0649775 0.282876 -0.305294 -0.898069 0.31665
0.250927 0.23996 0.242596 0.619984 0.597998 -0.507955
-0.642277 -0.432949 0.307638 -0.056004 -0.610288 0.790197
-0.668214 -0.419923 0.316705 0.142668 -0.578504 0.803106
-0.663262 -0.434154 0.306374 -0.151674 0.66279 -0.733284
-0.649685 -0.419305 0.318926 -0.0269063 -0.552202 0.833276
-0.654701 -0.447652 0.294591 0.115449 -0.679897 0.724162
-0.646025 -0.461041 0.282514 0.099957 -0.581936 0.807068
-0.639934 -0.475525 0.272239 -0.223953 0.493634 -0.84034
-0.63892 -0.491692 0.264697 0.439995 -0.378817 0.814188
-0.63954 -0.508251 0.258347 0.615578 -0.358323 0.701903
-0.638103 -0.524416 0.250149 0.661419 -0.440094 0.607325
-0.635667 -0.539981 0.24165 0.697629 -0.526779 0.485611
-0.629679 -0.554338 0.231015 0.756731 -0.559174 0.338648
0.385094 0.316513 0.168913 -0.475758 -0.734792 0.483461
-0.412518 1.14912 0.10546 0.0797158 0.933225 0.350338
-0.323892 -0.59555 -0.0156026 -0.337289 0.804614 -0.488704
-0.333873 -0.581678 -0.00264284 0.314962 -0.772588 0.551277
-0.312485 -0.60873 -0.0295852 -0.385487 0.851314 -0.355899
-0.297787 -0.62047 -0.0454251 -0.385077 0.90031 -0.202876
0.38687 0.301082 0.154865 0.384132 0.675851 -0.629021
0.390639 0.324617 0.1836 0.499554 0.855691 -0.135053
0.660769 0.979794 -0.111049 0.853421 0.499646 -0.14841
-0.60585 0.760426 0.758187 0.197964 -0.953845 0.225808
-0.553287 0.751808 0.715317 0.0550469 -0.99069 0.12451
-0.528409 0.745931 0.694719 0.196609 -0.950222 0.24171
-0.512521 0.736319 0.679082 -0.326996 0.842807 -0.427492
-0.505054 0.723431 0.667927 -0.426584 0.684065 -0.591676
-0.499977 0.709348 0.657923 0.468597 -0.581958 0.664636
-0.495294 0.694739 0.64836 0.487556 -0.497927 0.717188
-0.492874 0.67926 0.63986 -0.518245 0.457069 -0.722849
-0.490629 0.663783 0.631594 0.516505 -0.421504 0.745357
-0.489742 0.647667 0.624102 0.552072 -0.317906 0.770813
-0.491231 0.630696 0.617833 0.587139 -0.172917 0.790802
0.399328 0.329539 0.198591 0.512619 0.857521 0.0433666
-0.606417 0.513035 0.654854 -0.283479 -0.306669 -0.908622
-0.621788 0.489676 0.6565 0.243144 0.21319 0.946272
-0.635829 0.466925 0.65699 -0.273617 -0.1881 -0.943267
-0.647366 0.445605 0.656531 0.269465 0.273503 0.923355
-0.667667 0.420066 0.660092 -0.267689 -0.448627 -0.852688
-0.698993 0.389822 0.669736 -0.420658 -0.466223 -0.778256
-0.71689 0.365279 0.672523 -0.541118 -0.377201 -0.751606
-0.72846 0.343938 0.672046 0.597611 0.237443 0.765821
-0.736372 0.324004 0.670153 -0.601756 -0.087603 -0.793861
-0.741401 0.305814 0.665428 -0.552549 0.0969165 -0.827827
-0.743998 0.288493 0.659871 -0.527794 0.183557 -0.829301
-0.746041 0.27169 0.65477 0.499005 -0.0271111 0.866175
-0.754564 0.252277 0.652898 0.516177 0.161783 0.841063
-0.765873 0.23068 0.651366 0.520736 0.106774 0.847014
-0.771276 0.212259 0.647739 0.504051 -0.128413 0.854074
-0.772645 0.195591 0.641512 -0.492798 0.284915 -0.822176
-0.772763 0.179485 0.634624 0.504731 -0.354236 0.78725
-0.77174 0.163868 0.627214 0.550549 -0.314881 0.77314
-0.772745 0.146383 0.620714 0.617298 -0.267952 0.739692
-0.773859 0.131839 0.614744 0.644772 -0.314114 0.696851
-0.772254 0.115241 0.606725 0.600396 -0.427985 0.675539
-0.768821 0.100461 0.597957 0.538873 -0.518407 0.663981
-0.766375 0.0854135 0.589574 0.477488 -0.54156 0.691895
-0.762695 0.0708168 0.580462 0.464893 -0.534343 0.705941
-0.75905 0.0561787 0.57158 0.50694 -0.500407 0.701858
-0.75659 0.040956 0.563145 0.556925 -0.48918 0.671221
-0.754354 0.025647 0.555094 0.538548 -0.551093 0.637387
-0.749799 0.0113488 0.54561 -0.454322 0.640513 -0.61914
-0.74242 -0.00179729 0.53444 0.389223 -0.68015 0.621209
-0.736139 -0.0151802 0.523754 -0.351916 0.692836 -0.629391
-0.728822 -0.028423 0.512658 -0.34928 0.702912 -0.619611
-0.722454 -0.0416306 0.50183 -0.339305 0.7237 -0.600942
-0.713841 -0.0541787 0.489809 0.239994 -0.788377 0.566449
-0.703772 -0.0653585 0.476324 -0.192293 0.813966 -0.548163
-0.705139 -0.0767121 0.460014 -0.168354 0.471109 -0.86586
-0.0040349 -0.0031027 0.00715635 0.170961 0.983429 -0.0603257
0.661864 1.01843 -0.0581668 0.894912 0.122299 -0.429158
-0.0877946 0.831545 0.877145 0.388082 0.646388 -0.656943
-0.0176245 0.0251898 0.209145 -0.443412 -0.839522 0.313989
-0.0230955 0.0168754 0.19443 0.476007 0.834618 -0.277183
0.526989 0.42978 0.0943654 0.789564 0.51186 -0.338509
0.534187 0.437879 0.0873262 0.812033 0.496711 -0.306399
0.298072 0.0961641 -0.226904 0.582517 0.78614 0.206539
0.290045 0.0889367 -0.219951 -0.569154 -0.798652 -0.195496
0.280076 0.085589 -0.234912 -0.535405 -0.812449 -0.230799
0.468685 0.261374 -0.21558 -0.781055 -0.608984 -0.138173
0.462422 0.252347 -0.208182 -0.780167 -0.619234 -0.0888234
0.455582 0.245611 -0.222833 -0.780829 -0.604923 -0.156125
0.543521 0.417817 0.0304224 -0.898411 -0.424514 0.112449
0.548597 0.428144 0.0230702 -0.916134 -0.395699 0.0641964
0.5463 0.428439 0.0447258 -0.900556 -0.366583 0.233701
-0.0332427 0.0377177 0.251382 -0.496558 -0.776467 0.38798
-0.0472242 0.0231519 0.24337 0.564374 0.749063 -0.346969
0.490739 0.279867 -0.170889 0.725336 0.687451 0.0360337
0.483604 0.271763 -0.163746 0.723862 0.689836 0.012242
0.476409 0.265462 -0.178604 0.738285 0.672825 0.0473515
0.0910328 0.211521 0.429741 -0.0145616 -0.997179 -0.0736285
0.566181 0.47329 -0.0284861 -0.923906 -0.382363 0.0140145
0.549068 0.429342 0.00120746 -0.930988 -0.361597 0.0500853
0.553068 0.438748 0.0156807 -0.923655 -0.382363 0.0256904
0.135399 0.216923 0.344633 0.243676 0.954648 -0.171083
0.469809 0.40489 0.215348 -0.834568 -0.550887 -0.00435434
0.465531 0.393703 0.222816 -0.856651 -0.512145 -0.0621066
-0.684243 -0.419007 0.312087 0.348927 -0.574927 0.740073
-0.678203 -0.433218 0.301629 -0.304793 0.652015 -0.694246
-0.671967 -0.447157 0.290666 0.241172 -0.669013 0.703035
-0.665911 -0.461433 0.280167 0.177767 -0.625871 0.759397
-0.659755 -0.475777 0.269615 0.161351 -0.577684 0.800155
-0.653615 -0.490014 0.25902 -0.293448 0.547073 -0.783964
-0.650602 -0.505505 0.250801 0.470958 -0.519019 0.713315
-0.647781 -0.521077 0.241841 0.612804 -0.523841 0.591661
-0.642709 -0.535626 0.231707 0.681428 -0.577473 0.449646
-0.636743 -0.550019 0.221173 0.710146 -0.62431 0.325469
-0.505575 0.615504 0.60523 0.501176 0.0592528 0.863314
-0.36861 -0.552538 0.0178239 0.197352 -0.672344 0.713446
-0.359995 -0.566836 0.00575475 -0.232083 0.757464 -0.610234
-0.348946 -0.580816 -0.00733848 -0.340684 0.812141 -0.473667
-0.336266 -0.593322 -0.0221176 -0.41282 0.828761 -0.377802
-0.322513 -0.605938 -0.0374946 -0.44838 0.861863 -0.236956
-0.306472 -0.617006 -0.0541166 0.428832 -0.893543 0.13298
-0.387605 -0.600028 0.491157 0.361441 0.562699 0.743459
-0.0708138 0.744545 0.723886 -0.154706 -0.979098 0.132036
-0.651512 0.257872 0.692482 0.169055 -0.0138262 0.98551
0.409056 0.333373 0.213757 0.554329 0.827453 0.0896664
0.417582 0.338452 0.228752 0.614149 0.78919 -0.000335147
-0.617956 0.762994 0.75104 -0.206769 0.9487 -0.239197
-0.735759 0.939108 0.622434 0.683447 0.68948 0.239829
-0.611553 0.757083 0.72682 0.114031 -0.984643 0.132193
-0.541865 0.747699 0.688236 -0.172186 0.969463 -0.174625
0.565843 0.656187 0.17001 -0.950293 -0.132535 0.281739
-0.524719 0.738503 0.671889 -0.377324 0.850883 -0.365547
-0.516338 0.725695 0.660372 -0.510355 0.672514 -0.535968
-0.511301 0.711522 0.650461 0.522923 -0.580373 0.624275
-0.507597 0.696616 0.641282 0.547321 -0.506848 0.665991
-0.505125 0.681168 0.632756 -0.542306 0.468796 -0.697234
-0.50288 0.66564 0.624536 -0.557473 0.417748 -0.717434
-0.501848 0.651125 0.617802 0.57483 -0.329447 0.749023
-0.502196 0.632997 0.610156 0.555168 -0.191971 0.809281
-0.51774 0.617439 0.598787 0.523494 0.11791 0.843832
-0.602996 0.537794 0.644279 0.265324 0.547533 0.793606
-0.622454 0.513216 0.649599 0.287417 0.344204 0.893821
-0.638012 0.489915 0.651598 -0.290057 -0.25444 -0.922566
-0.653011 0.46646 0.652313 0.255094 0.20439 0.945067
-0.666987 0.443889 0.652679 0.223986 0.248277 0.942438
-0.686126 0.419143 0.656122 0.267258 0.415311 0.869534
-0.708904 0.392518 0.661306 -0.487756 -0.405033 -0.773332
-0.725286 0.368802 0.663249 0.635528 0.385565 0.668912
-0.735703 0.348105 0.662256 -0.639056 -0.275033 -0.718306
-0.745696 0.327347 0.66068 -0.608019 -0.17627 -0.774107
-0.752495 0.30819 0.657814 0.581438 -0.0303301 0.813025
-0.755372 0.29096 0.65271 0.566034 -0.152632 0.810129
-0.758155 0.273804 0.647466 0.602277 -0.0282733 0.797787
-0.76538 0.254272 0.644077 0.574356 0.181096 0.798323
-0.77676 0.233178 0.643411 0.577274 0.174557 0.797675
-0.782363 0.21482 0.640013 0.579077 -0.0580423 0.813204
-0.784761 0.197665 0.63426 0.547869 -0.264746 0.793567
-0.78481 0.181675 0.627321 0.52547 -0.362199 0.769866
-0.783888 0.165968 0.620082 0.573295 -0.369544 0.73128
-0.78301 0.150289 0.612838 0.661662 -0.315954 0.679983
-0.783096 0.134098 0.605924 0.7225 -0.285168 0.62982
-0.783341 0.117841 0.599152 0.695356 -0.359904 0.622053
-0.781139 0.102573 0.591043 0.618142 -0.441604 0.650297
-0.777557 0.0878423 0.582134 0.545105 -0.485944 0.683168
-0.774839 0.0730239 0.573374 0.510231 -0.53081 0.676687
-0.771004 0.0585952 0.564441 0.497043 -0.549015 0.67196
-0.766401 0.0440491 0.554914 0.571318 -0.516655 0.637701
-0.763639 0.0294883 0.546013 0.583102 -0.510359 0.632081
-0.760535 0.0142898 0.53765 0.529902 -0.587722 0.611381
-0.754871 -0.00012212 0.527964 -0.47336 0.644904 -0.600025
-0.748608 -0.0134129 0.517144 0.433424 -0.680045 0.59134
-0.741295 -0.0267351 0.506152 0.407311 -0.712387 0.571492
-0.734886 -0.039833 0.495221 0.415339 -0.699324 0.581755
-0.728575 -0.0529527 0.484321 -0.322644 0.744869 -0.584012
-0.718629 -0.0647551 0.471099 -0.224228 0.770225 -0.597055
-0.318555 1.16778 0.0787322 -0.0939583 -0.929115 -0.357655
-0.328371 1.16366 0.0872239 -0.0921508 -0.931059 -0.353041
0.299253 0.25604 0.362129 0.428907 0.900285 -0.0743359
0.288079 0.251964 0.368784 -0.412392 -0.908207 0.0713708
0.319442 0.26941 0.3046 -0.481993 -0.871503 -0.0903628
0.4476 0.367575 0.22244 0.767295 0.639726 0.0448154
0.439944 0.360033 0.229385 0.724961 0.687302 -0.0452521
0.434086 0.352272 0.214743 0.690849 0.72177 0.0421293
-0.00902878 0.0564375 0.274236 0.263963 0.914684 -0.306066
0.611029 0.575888 -0.0146021 -0.978948 -0.203727 0.0124824
-0.742331 -0.207819 0.450949 -0.0593575 -0.153234 0.986406
-0.751287 -0.215543 0.449814 0.0183166 -0.203231 0.978959
-0.740246 -0.225787 0.445493 -0.122317 -0.346535 0.930028
0.537896 0.461748 0.115928 0.797828 0.477856 -0.367592
-0.771133 -0.216261 0.447262 0.194358 -0.23122 0.95329
-0.771447 -0.232585 0.440648 0.271964 -0.41787 0.866845
-0.735924 -0.277351 0.421886 0.0728006 -0.472599 0.878265
-0.765376 -0.278713 0.415698 -0.219705 0.524692 -0.822452
0.105488 0.212027 0.423442 -0.0304811 -0.996288 -0.0805093
0.119623 0.211374 0.439149 -0.0608039 -0.996881 -0.0503099
0.106206 0.209864 0.445541 -0.0402514 -0.998664 -0.0324073
-0.0543802 -0.00695165 -0.0553566 0.00821462 0.997976 0.0630558
-0.104169 0.0428401 0.362514 0.697902 0.589887 -0.40616
-0.700259 -0.401908 0.314859 0.357614 -0.561841 0.745954
-0.689131 -0.388217 0.329458 0.252464 -0.55409 0.793251
-0.696761 -0.417095 0.305849 -0.413956 0.563431 -0.714973
-0.693022 -0.431958 0.296441 0.395441 -0.622179 0.675662
-0.686818 -0.44603 0.285631 -0.323921 0.610678 -0.722598
-0.682117 -0.460879 0.276035 0.244175 -0.565457 0.787805
-0.678396 -0.47567 0.266535 0.180032 -0.604144 0.776273
-0.672244 -0.489899 0.255833 -0.211609 0.657693 -0.722953
-0.665007 -0.504105 0.244972 -0.318858 0.625946 -0.711703
-0.65886 -0.51833 0.234292 -0.447362 0.640677 -0.624019
-0.653954 -0.533011 0.224377 -0.542565 0.684823 -0.486457
-0.645857 -0.546057 0.212663 0.624975 -0.707323 0.330302
-0.373767 -0.56567 0.00064154 -0.318322 0.810984 -0.490893
-0.38504 -0.552406 0.0143217 0.249185 -0.732341 0.633706
-0.361159 -0.578203 -0.0140622 0.401451 -0.844741 0.353905
-0.347285 -0.590462 -0.0293911 0.44931 -0.868681 0.208598
-0.332346 -0.602673 -0.0455823 0.500143 -0.862455 0.0776446
-0.632906 0.772298 0.76623 -0.250209 0.868839 -0.427216
0.413089 0.181709 -0.171951 0.689343 0.712342 0.131818
-0.661708 0.782095 0.775479 0.235295 -0.786861 0.570514
-0.654641 0.794125 0.792926 0.19055 -0.724338 0.662589
-0.649299 0.771163 0.76169 -0.166861 0.871749 -0.460664
-0.635249 0.762763 0.746633 0.135901 -0.954943 0.263846
-0.627647 0.757185 0.721896 0.0915673 -0.983239 0.157662
-0.555385 0.748963 0.681923 0.15204 -0.982615 0.106548
-0.569355 0.752076 0.710377 0.0526631 -0.994745 0.0878052
-0.535782 0.740908 0.664162 0.397265 -0.869089 0.294729
-0.528563 0.727595 0.653228 0.544442 -0.669657 0.505116
-0.522469 0.713943 0.642803 0.58755 -0.566239 0.578065
-0.519818 0.698587 0.634081 0.604936 -0.495324 0.623463
-0.51642 0.683418 0.625255 0.62697 -0.447773 0.637502
-0.514201 0.667949 0.617028 0.638059 -0.39486 0.661034
-0.513108 0.651998 0.609403 0.61763 -0.319165 0.718795
-0.513376 0.635475 0.602617 0.611581 -0.155397 0.775771
-0.613445 0.543219 0.6354 0.279313 0.670916 0.686918
-0.638429 0.513215 0.644049 0.314321 0.386883 0.866905
-0.653947 0.489997 0.646088 -0.299108 -0.293817 -0.907858
-0.669128 0.466725 0.647579 -0.248471 -0.234566 -0.939809
-0.685524 0.443009 0.64955 -0.284757 -0.229059 -0.930831
-0.702054 0.419062 0.650655 -0.426866 -0.32978 -0.842039
-0.718184 0.395196 0.652089 -0.538844 -0.367022 -0.75825
-0.73033 0.374272 0.652497 -0.571334 -0.357398 -0.738812
-0.7427 0.352207 0.652134 0.55561 0.325615 0.765031
-0.755404 0.330429 0.652249 0.598654 0.230033 0.767266
-0.76318 0.310835 0.649738 0.589759 0.0156594 0.807428
-0.767237 0.293023 0.645164 0.585154 -0.143822 0.798066
-0.769693 0.275744 0.639451 0.61928 -0.0698584 0.782057
-0.774698 0.257195 0.635233 0.615645 0.157347 0.772155
-0.785051 0.23674 0.634075 -0.591845 -0.205662 -0.779373
-0.793039 0.217328 0.631922 -0.566733 -0.00101467 -0.823901
-0.795868 0.200215 0.626731 0.557215 -0.223151 0.799822
-0.795985 0.184163 0.61985 0.536872 -0.363364 0.761403
-0.794718 0.166806 0.611754 -0.559098 0.441843 -0.701558
-0.792484 0.153526 0.60418 -0.657445 0.416094 -0.628197
-0.791457 0.137777 0.596777 0.740235 -0.304842 0.599269
-0.791555 0.121593 0.589875 0.765864 -0.274469 0.581481
-0.790557 0.10587 0.582385 -0.680037 0.353543 -0.642306
-0.789632 0.0900885 0.574977 -0.58818 0.435718 -0.681318
-0.787045 0.0751889 0.566366 0.5107 -0.502306 0.697764
-0.78323 0.0607899 0.557103 0.472659 -0.545389 0.692202
-0.778542 0.0464644 0.547693 0.477046 -0.558527 0.678583
-0.77494 0.0318738 0.538558 0.510294 -0.542073 0.66765
-0.770656 0.0170257 0.529785 0.51652 -0.565885 0.642637
-0.76598 0.00262527 0.520233 -0.477809 0.623031 -0.619298
-0.76187 -0.0113823 0.510647 -0.450081 0.665282 -0.595674
-0.754591 -0.0245615 0.49971 0.42168 -0.715123 0.557481
-0.745718 -0.0371942 0.487576 0.419917 -0.687126 0.592897
-0.7422 -0.0516176 0.478322 0.378583 -0.672517 0.635921
-0.734677 -0.0644745 0.46649 -0.259666 0.676648 -0.689
-0.083934 -0.0103864 0.190558 -0.354216 -0.931684 0.0806029
-0.0751766 -0.00533824 0.205739 -0.380309 -0.914449 0.138377
-0.0865127 -0.0092494 0.212297 -0.395149 -0.908405 0.136589
0.371244 1.28601 -0.0518405 -0.196912 0.973897 0.11292
-0.0675047 0.00079558 0.220744 0.406393 0.874142 -0.265935
-0.0798765 -0.00215725 0.227187 0.441082 0.869654 -0.221694
-0.0953127 -0.014184 0.197113 -0.362282 -0.929793 0.0650867
-0.0569384 -0.0133278 0.0760641 -0.158575 -0.986913 0.0292566
-0.0602934 -0.00359461 0.177608 -0.306389 -0.942683 0.13219
-0.0514837 0.00137556 0.19275 -0.360549 -0.913907 0.186491
-0.0289217 0.0473602 0.265854 0.445662 0.828961 -0.337949
-0.0157014 0.0495406 0.259323 -0.321838 -0.871821 0.369254
-0.0225602 0.0548999 0.280551 0.33045 0.892867 -0.305926
-0.763594 -0.197247 0.451024 0.114687 -0.0746791 0.990591
-0.783296 -0.19789 0.447393 0.3022 -0.0939096 0.948608
-0.787014 -0.215378 0.442111 0.355392 -0.273082 0.893937
-0.786065 -0.231155 0.434874 0.419063 -0.439754 0.794357
-0.783718 -0.246336 0.426693 0.43274 -0.453214 0.779316
-0.782534 -0.262108 0.418857 0.416326 -0.450032 0.790028
-0.780199 -0.277569 0.410513 -0.393244 0.54189 -0.742775
-0.776315 -0.291999 0.400794 -0.335304 0.677108 -0.655054
-0.76774 -0.304976 0.388768 0.300899 -0.716815 0.628996
-0.760492 -0.31865 0.377638 -0.270169 0.678016 -0.683595
-0.754437 -0.332519 0.366859 -0.214397 0.684562 -0.696713
-0.0690474 -0.00726931 -0.0493263 0.0174231 0.997175 0.0730625
-0.713712 -0.399596 0.308288 -0.301662 0.623489 -0.721291
-0.722316 -0.38586 0.319749 -0.16499 0.678195 -0.716122
-0.710118 -0.414855 0.299293 -0.37606 0.616293 -0.691926
-0.705277 -0.429628 0.289557 0.401336 -0.587154 0.702979
-0.700522 -0.444396 0.279888 0.379974 -0.548914 0.744522
-0.698137 -0.459877 0.271328 -0.301272 0.506771 -0.807724
-0.696965 -0.475674 0.263456 0.241759 -0.58221 0.776263
-0.68961 -0.489428 0.252092 -0.232231 0.687386 -0.688164
-0.680986 -0.502802 0.240094 0.25176 -0.68104 0.687605
-0.674975 -0.517376 0.229789 0.320697 -0.678656 0.660742
-0.665038 -0.530203 0.216909 -0.369669 0.758455 -0.536741
-0.65635 -0.543529 0.204732 0.481783 -0.806046 0.343765
-0.376091 -0.537885 0.0289091 -0.183206 0.647716 -0.739527
-0.392354 -0.537579 0.0254255 -0.234769 0.688515 -0.686171
-0.398777 -0.551022 0.00876723 -0.328481 0.789726 -0.518105
-0.409646 -0.536685 0.0213536 -0.261432 0.691752 -0.673151
-0.387338 -0.563789 -0.00517845 0.351523 -0.871593 0.341697
-0.372239 -0.575614 -0.0212876 -0.460566 0.867733 -0.186863
-0.355754 -0.586755 -0.0382584 0.525202 -0.848647 0.0629365
-0.339292 -0.598097 -0.0552304 0.546171 -0.837589 -0.011921
-0.664084 0.77198 0.755977 -0.334329 0.875099 -0.349894
-0.647857 0.76296 0.740055 0.157449 -0.944754 0.287487
-0.642512 0.757248 0.716307 -0.118064 0.986691 -0.111812
-0.614291 0.755273 0.711612 -0.0737474 0.993964 -0.0812175
-0.781643 0.506841 0.561578 -0.691604 -0.374742 -0.617457
-0.781455 0.491847 0.569464 -0.687829 -0.346138 -0.638029
-0.570258 0.74953 0.676388 0.139979 -0.986684 0.0828316
-0.586533 0.752576 0.7061 0.0721447 -0.994089 0.0811269
-0.546782 0.743338 0.65645 -0.399607 0.896889 -0.189483
-0.538363 0.730535 0.644871 0.604648 -0.663933 0.439994
-0.53362 0.716256 0.635136 0.651117 -0.555003 0.517705
-0.528939 0.701753 0.625501 0.682921 -0.480996 0.549783
-0.526496 0.686303 0.617031 0.716324 -0.43132 0.548491
-0.524418 0.670801 0.608913 0.724426 -0.350944 0.593334
-0.523247 0.654606 0.601564 0.710368 -0.27025 0.649879
-0.524658 0.637858 0.595112 0.645386 -0.0658113 0.761016
-0.651755 0.514227 0.636783 0.329532 0.408886 0.851012
-0.669854 0.490115 0.640776 -0.295942 -0.338135 -0.893355
-0.687804 0.465819 0.644017 -0.234778 -0.253627 -0.938378
-0.701593 0.442961 0.643761 0.428571 0.189255 0.883464
-0.714335 0.420981 0.643612 0.436035 0.287515 0.852766
-0.72839 0.398514 0.644457 0.489931 0.320378 0.810756
-0.739421 0.376921 0.64316 0.505802 0.286353 0.813736
-0.753799 0.354698 0.644607 -0.427871 -0.257747 -0.86631
-0.766603 0.332945 0.644807 -0.459847 -0.154107 -0.874523
-0.774362 0.313381 0.642263 -0.529479 0.0188694 -0.848113
-0.778253 0.295528 0.637445 0.564277 -0.180156 0.805689
-0.779639 0.278777 0.631296 0.589789 -0.134784 0.79623
-0.784675 0.260367 0.62711 0.611545 0.11452 0.782878
-0.794963 0.239794 0.625938 0.589868 0.226356 0.775125
-0.804103 0.219968 0.624332 -0.570504 -0.0636202 -0.818827
-0.808176 0.202201 0.61984 0.538364 -0.186448 0.821828
-0.809392 0.185753 0.613474 0.502112 -0.365907 0.783579
-0.807001 0.170757 0.605241 0.508743 -0.494948 0.704419
-0.80236 0.156619 0.595998 0.576905 -0.527831 0.623357
-0.799384 0.141824 0.587107 0.692528 -0.409037 0.594216
-0.799288 0.125731 0.57993 0.728363 -0.271639 0.629046
-0.800077 0.109084 0.573769 0.663752 -0.263318 0.700069
-0.800302 0.0929097 0.56695 0.600979 -0.364708 0.711205
-0.79822 0.0776564 0.558937 -0.537618 0.468201 -0.701252
-0.796067 0.0623056 0.550931 0.486035 -0.530817 0.694265
-0.792661 0.0474818 0.542249 0.487774 -0.553663 0.674932
-0.788613 0.0332833 0.532575 0.479664 -0.562943 0.673065
-0.784023 0.0188357 0.523373 -0.48562 0.575649 -0.657876
-0.779277 0.00459411 0.51377 -0.477848 0.61386 -0.628361
-0.773022 -0.0089185 0.503199 -0.468814 0.645885 -0.602533
-0.767908 -0.0226599 0.493147 0.417162 -0.70434 0.574353
-0.759072 -0.0351347 0.480889 0.41239 -0.69246 0.591975
-0.752829 -0.0499824 0.471651 -0.401805 0.615102 -0.678382
-0.749991 -0.0643652 0.462277 0.325782 -0.58362 0.74381
-0.745234 -0.0788236 0.452826 -0.269851 0.209865 -0.939754
-0.765919 -0.119328 0.451472 -0.243177 -0.0687067 -0.967546
-0.746813 -0.145793 0.453799 -0.125278 0.142584 -0.981822
-0.773831 -0.138626 0.449566 -0.21029 0.0578195 -0.975928
-0.780347 -0.157281 0.44674 0.211221 -0.0311442 0.976942
-0.79075 -0.177516 0.445444 -0.284581 0.025273 -0.958319
-0.765741 -0.187139 0.450505 0.113184 -0.0117835 0.993504
-0.797799 -0.19667 0.441713 0.361532 -0.120736 0.924509
-0.800575 -0.213683 0.436118 -0.471756 0.321508 -0.821023
-0.799386 -0.229225 0.428428 0.513505 -0.448311 0.731662
-0.796166 -0.244205 0.420073 -0.530939 0.430526 -0.729898
-0.79606 -0.260385 0.412781 -0.519922 0.426047 -0.740382
-0.793805 -0.275901 0.404508 0.500296 -0.523189 0.689911
-0.788725 -0.289912 0.394449 -0.435116 0.642441 -0.630828
-0.782343 -0.303546 0.383203 -0.362215 0.685152 -0.631955
-0.775298 -0.317386 0.372238 0.277566 -0.642621 0.71414
-0.769282 -0.331508 0.361768 0.231888 -0.641818 0.730956
-0.763135 -0.345338 0.350954 -0.190855 0.68073 -0.707235
-0.757011 -0.359219 0.340151 0.16615 -0.664802 0.728308
-0.74452 -0.386405 0.317985 -0.0558755 0.66954 -0.740672
-0.726974 -0.378029 0.327601 -0.122562 0.693197 -0.710251
0.533775 0.348717 -0.0983228 -0.813069 -0.580897 0.0384428
-0.734721 -0.399489 0.305641 0.100891 -0.686803 0.719808
-0.730808 -0.39212 0.312987 0.0668703 -0.700456 0.710556
-0.723647 -0.412867 0.293081 0.304977 -0.659983 0.686594
-0.717656 -0.427381 0.282885 -0.361718 0.610061 -0.704972
-0.715366 -0.443059 0.274599 0.395851 -0.49946 0.770611
-0.713144 -0.458742 0.266431 -0.367438 0.451219 -0.813259
-0.711753 -0.474307 0.258172 0.325901 -0.568999 0.755003
-0.705778 -0.488641 0.247691 0.30157 -0.706401 0.640353
-0.697016 -0.5016 0.23533 0.276225 -0.687594 0.671502
-0.69089 -0.515679 0.224729 -0.27615 0.704684 -0.653577
-0.682425 -0.529723 0.213086 -0.321588 0.81779 -0.477284
-0.423569 -0.53588 0.0166384 0.388857 -0.776032 0.496552
-0.412494 -0.549337 0.00300578 0.377238 -0.849118 0.369715
-0.398617 -0.561462 -0.0124209 0.417668 -0.888523 0.189947
-0.380756 -0.571733 -0.0300774 -0.479796 0.875583 -0.0561261
-0.361921 -0.582503 -0.0486311 0.572066 -0.817533 -0.066188
-0.662675 0.763659 0.734401 -0.301001 0.933848 -0.193199
-0.583716 0.751187 0.670046 0.110404 -0.993873 0.00525682
-0.600163 0.753352 0.699809 -0.0725914 0.995118 -0.0668623
-0.556652 0.746169 0.648252 -0.459017 0.875072 -0.153465
-0.548176 0.733554 0.636407 0.67154 -0.642397 0.369271
-0.542301 0.719744 0.626042 0.713752 -0.540529 0.445406
-0.538777 0.704849 0.616935 0.74871 -0.48163 0.455485
-0.535181 0.689866 0.607872 0.786135 -0.411815 0.460868
-0.532703 0.67456 0.599522 0.806409 -0.305125 0.506561
-0.533074 0.657585 0.593212 0.729584 -0.227879 0.644808
-0.533742 0.641112 0.585914 0.701792 0.0429219 0.711087
-0.542617 0.622016 0.58611 0.384991 0.314353 0.867735
0.360675 1.03579 0.49455 0.770114 -0.0831863 -0.632459
-0.683674 0.491729 0.635587 -0.274868 -0.368897 -0.887898
-0.679996 0.508036 0.62813 -0.311113 -0.422033 -0.851526
-0.703866 0.466064 0.639863 0.423109 0.189298 0.886084
-0.724251 0.424027 0.635491 0.480672 0.29201 0.826853
-0.740015 0.401228 0.637812 -0.417638 -0.319993 -0.850401
-0.754786 0.378041 0.638626 0.374918 0.283416 0.882673
-0.769864 0.354956 0.639747 -0.3691 -0.218061 -0.903446
-0.781382 0.333763 0.63921 0.446574 0.0765893 0.891463
-0.787915 0.314758 0.636041 -0.504243 0.0985484 -0.85792
-0.790388 0.297597 0.63029 0.530417 -0.228585 0.816337
-0.790773 0.281291 0.623805 0.567222 -0.1906 0.801206
-0.79465 0.263484 0.619013 0.580144 0.0886371 0.809677
-0.805883 0.242204 0.618191 0.553527 0.243306 0.796498
-0.815208 0.222431 0.616832 0.535301 0.113195 0.837042
-0.82042 0.204239 0.612822 -0.516617 0.158115 -0.841491
-0.821755 0.187681 0.606667 0.493954 -0.347299 0.797115
-0.82042 0.172438 0.598795 0.43998 -0.519935 0.732178
-0.815609 0.158494 0.589323 -0.47252 0.597443 -0.647909
-0.809935 0.144588 0.57951 0.566648 -0.537866 0.624188
-0.807298 0.129493 0.570895 0.654632 -0.296691 0.695292
-0.809539 0.112176 0.56594 0.630785 -0.189071 0.75257
-0.810654 0.0956305 0.55932 0.560679 -0.318881 0.764169
-0.810494 0.0797478 0.551982 -0.515205 0.452344 -0.727976
-0.80718 0.0648298 0.54348 0.503667 -0.535335 0.678038
-0.803564 0.0502147 0.53446 0.560527 -0.546289 0.622396
-0.79996 0.0355434 0.525492 0.575421 -0.555416 0.600336
-0.795336 0.0211608 0.516071 0.571653 -0.564108 0.595815
-0.791387 0.00686892 0.506754 0.532372 -0.610099 0.586821
-0.78521 -0.00660365 0.496208 0.505875 -0.635046 0.583786
-0.7803 -0.0207212 0.486401 -0.458706 0.671082 -0.582442
-0.772941 -0.0340174 0.475215 0.438246 -0.681664 0.585897
-0.765054 -0.0475172 0.464345 -0.42706 0.592016 -0.683474
-0.762514 -0.0626117 0.456041 -0.380948 0.441788 -0.81222
-0.762824 -0.0788741 0.449656 0.296215 -0.133873 0.945693
-0.769437 -0.0973123 0.446928 -0.226813 -0.0664726 -0.971667
-0.78213 -0.118704 0.447135 0.238121 0.0490814 0.969994
-0.791048 -0.138437 0.445012 -0.265046 0.00206248 -0.964234
-0.797683 -0.15717 0.44236 -0.265306 0.0130824 -0.964076
-0.805542 -0.176425 0.439992 -0.328481 0.0392794 -0.943694
-0.811342 -0.194894 0.43535 0.405146 -0.217459 0.888014
-0.812485 -0.211188 0.42915 0.500568 -0.380386 0.777649
-0.810253 -0.226457 0.420984 0.560358 -0.453714 0.692923
-0.808007 -0.241726 0.412792 0.589457 -0.414883 0.693117
-0.806859 -0.257588 0.405078 0.588535 -0.410264 0.696641
-0.804598 -0.273018 0.396838 0.569698 -0.504772 0.648574
-0.801021 -0.28788 0.387552 0.509755 -0.588093 0.627931
-0.795871 -0.301918 0.377173 -0.406857 0.614317 -0.676078
-0.79004 -0.316119 0.366842 0.277571 -0.580408 0.765559
-0.787602 -0.331065 0.357982 0.196475 -0.600898 0.774803
-0.781599 -0.345178 0.347493 -0.189345 0.676303 -0.711873
-0.77315 -0.358774 0.335989 0.196701 -0.659317 0.725678
-0.768278 -0.373333 0.326169 -0.195152 0.619368 -0.76046
-0.764531 -0.387884 0.31662 0.200173 -0.641486 0.740558
-0.756936 -0.400933 0.304872 -0.0839846 0.731375 -0.676785
-0.74221 -0.412466 0.28973 0.1455 -0.746616 0.649149
-0.732563 -0.426086 0.277675 0.347371 -0.632983 0.691857
-0.72788 -0.440953 0.26817 0.399721 -0.498424 0.769283
-0.727768 -0.457151 0.260798 0.420004 -0.436387 0.795716
-0.726425 -0.47276 0.25259 0.382584 -0.567248 0.729286
-0.720359 -0.486761 0.241881 -0.347185 0.679718 -0.6461
-0.711865 -0.500131 0.230034 0.265994 -0.651549 0.710444
-0.70698 -0.51455 0.220164 0.256578 -0.698483 0.668049
-0.696852 -0.526223 0.206878 -0.206817 0.87324 -0.441224
-0.436923 -0.533559 0.0107115 0.396078 -0.776213 0.490527
-0.432683 -0.520148 0.0285161 0.290547 -0.741783 0.604434
-0.422298 -0.546221 -0.00506719 -0.470777 0.856151 -0.213015
-0.406125 -0.557714 -0.0220921 -0.484452 0.871481 -0.0763426
-0.388 -0.567703 -0.039791 0.51651 -0.848689 -0.113778
-0.672806 0.765868 0.726178 -0.469031 0.876381 -0.109388
-0.653774 0.758678 0.708764 0.241498 -0.968273 0.0642294
-0.628426 0.755278 0.688025 0.113175 -0.993464 0.0148403
-0.615028 0.753525 0.694234 0.0842837 -0.995161 0.0505126
-0.59968 0.752128 0.665238 0.152326 -0.983514 -0.0974511
-0.565023 0.750082 0.638857 -0.623077 0.736294 -0.263906
-0.556753 0.737171 0.627122 0.708603 -0.645862 0.284154
-0.551721 0.723105 0.617313 0.785946 -0.514885 0.342318
-0.54699 0.708661 0.607565 0.821821 -0.457855 0.339085
-0.54268 0.694108 0.598068 0.800514 -0.419039 0.428466
-0.540256 0.678753 0.589755 -0.820786 0.282791 -0.496326
-0.540219 0.662308 0.582791 0.830774 -0.132035 0.540722
-0.542701 0.644742 0.577228 0.702158 0.143842 0.697341
-0.551307 0.648323 0.568187 -0.626286 -0.183617 -0.757662
0.0468105 0.976689 0.679424 -0.171767 -0.939773 -0.295505
-0.702669 0.472776 0.638436 0.373693 0.285085 0.882655
-0.735592 0.426613 0.628324 0.479057 0.306717 0.822453
-0.753225 0.402483 0.631093 -0.36288 -0.343147 -0.866354
-0.771078 0.378424 0.634245 0.350072 0.297826 0.888116
-0.784995 0.355818 0.634926 -0.444988 -0.178896 -0.877486
-0.793917 0.335704 0.632674 0.487155 0.0734885 0.870218
-0.800339 0.316694 0.629266 -0.514377 0.0825347 -0.853583
-0.802648 0.299526 0.623287 -0.5131 0.249063 -0.821399
-0.803059 0.283294 0.616854 0.533972 -0.246598 0.808742
-0.804806 0.266548 0.611233 0.57129 0.0252028 0.820361
-0.8136 0.246542 0.609102 0.563368 0.244576 0.789176
-0.827416 0.224387 0.60975 0.535207 0.160236 0.829384
-0.831624 0.206718 0.605454 -0.535801 0.132804 -0.833835
-0.834111 0.189644 0.599785 0.528709 -0.31215 0.789322
-0.832976 0.174327 0.592217 0.478637 -0.488631 0.729484
-0.829208 0.160051 0.583077 -0.438952 0.613515 -0.656446
-0.822284 0.146464 0.572721 -0.444006 0.599623 -0.665816
-0.817591 0.13234 0.56331 0.504769 -0.3489 0.789606
-0.82089 0.114536 0.558885 0.518979 -0.195316 0.832174
-0.824072 0.0972908 0.552916 0.522244 -0.303359 0.797016
-0.823765 0.0813892 0.545577 0.482648 -0.467427 0.74065
-0.819397 0.0669279 0.536519 0.50471 -0.583246 0.636468
-0.814384 0.0530936 0.526586 0.558744 -0.576412 0.596284
-0.810768 0.038406 0.517653 0.613441 -0.553953 0.562873
-0.805944 0.0242327 0.508038 0.617353 -0.546027 0.56633
-0.802281 0.00960792 0.499012 0.578188 -0.576244 0.577617
-0.796362 -0.00419407 0.488754 0.530335 -0.616889 0.581543
-0.791444 -0.018219 0.478964 -0.506322 0.644418 -0.573031
-0.785157 -0.0317029 0.46828 -0.47604 0.657386 -0.584149
-0.779672 -0.0461872 0.458748 -0.478198 0.576039 -0.662952
-0.775031 -0.0606134 0.449568 0.354264 -0.313736 0.880947
-0.780358 -0.0787947 0.446108 0.306672 -0.0157944 0.951684
-0.788998 -0.0983226 0.443338 -0.245933 -0.0394745 -0.968483
-0.798166 -0.118026 0.442181 -0.257265 -0.040613 -0.965487
-0.807128 -0.137802 0.440378 -0.259909 -0.0118788 -0.96556
-0.81497 -0.157015 0.438219 0.278074 -0.0273457 0.96017
-0.823282 -0.176352 0.435015 -0.316956 0.139755 -0.938087
-0.825588 -0.193216 0.429354 0.406874 -0.311401 0.858768
