ply
format ascii 1.0
element vertex 821
property float x
property float y
property float z
property float nx
property float ny
property float nz
end_header
-0.889584 0.573946 -0.700686 0.894624 -0.438845 -0.0840458
-0.880979 0.565758 -0.686399 0.866983 -0.487879 -0.101557
-0.899122 0.549221 -0.736644 -0.941362 0.216064 0.25914
-0.589576 0.233699 0.823506 0.887663 -0.289916 0.357776
-0.582822 0.248211 0.823188 0.804074 -0.102304 0.585662
-0.582026 0.203875 0.845937 0.84104 -0.540694 -0.0173405
-0.590614 0.212477 0.830663 0.877754 -0.443737 0.18068
-0.403777 0.711789 -0.757235 0.688905 0.562211 0.457525
-0.636552 0.554365 -0.481132 -0.715149 -0.462383 -0.524179
-0.664767 0.537854 -0.466048 -0.65075 -0.6926 -0.311174
0.0616819 0.877412 -0.673363 -0.358149 -0.933548 0.0147181
0.56517 0.33078 -0.401882 -0.938137 -0.249611 0.239987
0.566005 0.344151 -0.413955 -0.941562 -0.204304 0.267808
0.560258 0.353998 -0.403653 -0.948751 -0.185967 0.255515
-0.416683 1.00279 -0.484952 0.280676 0.628211 -0.725653
-0.432914 1.0098 -0.484761 0.251418 0.611184 -0.750495
-0.428883 0.998758 -0.477184 0.257796 0.68053 -0.685872
-0.047145 0.6116 0.0279368 0.332703 0.628933 -0.702675
-0.439825 0.811074 0.033852 -0.298125 -0.155369 0.941797
-0.426482 0.808463 0.0314847 -0.34362 -0.139869 0.928634
-0.431181 0.815148 0.0133876 -0.346836 -0.124898 0.929573
-0.0233899 -0.0634068 0.802155 0.162688 0.409063 -0.897886
-0.0352331 0.59399 0.0376536 -0.137815 -0.682008 0.718243
-0.0390259 0.567479 0.0639837 0.413425 0.575439 -0.705655
-0.356681 0.596207 0.261486 0.462606 0.525496 -0.714038
-0.480727 0.787414 0.10935 -0.209952 -0.45905 0.863245
-0.494902 0.789244 0.111167 0.222534 0.451689 -0.863976
0.115233 -0.148085 0.894475 -0.124769 0.545253 -0.828934
0.102656 -0.164811 0.906417 0.19621 -0.657744 0.727237
-0.177493 0.644841 0.0821397 -0.328797 -0.29944 0.895672
-0.165046 0.641354 0.0790471 -0.366946 -0.302671 0.879625
-0.168129 0.649767 0.0621734 0.325836 0.119341 -0.937864
-0.1559 -0.0202954 0.771533 -0.0724841 -0.473316 0.877906
-0.904064 0.558371 -0.75113 -0.934343 0.135072 0.329784
-0.316256 0.00818105 0.736673 0.09522 -0.562378 0.82138
-0.687258 0.43581 -0.509183 -0.965892 -0.19292 -0.172725
-0.685503 0.466939 -0.552557 -0.984827 0.11434 -0.130545
-0.688629 0.486599 -0.581607 -0.9695 0.225262 -0.0965699
-0.686601 0.476953 -0.567008 -0.981247 0.147159 -0.124494
-0.692904 0.496009 -0.596131 -0.948334 0.312238 -0.0563124
-0.577382 0.359435 -0.774172 0.682299 -0.586327 -0.436679
-0.560656 0.353722 -0.760072 -0.608735 0.633025 0.478248
-0.155728 -0.0327397 0.786233 -0.053696 -0.540182 0.839833
-0.68623 0.446806 -0.50191 -0.924911 -0.312511 -0.21651
-0.59284 0.217992 0.824732 0.860359 -0.433661 0.267805
-0.973978 0.516875 -0.124058 0.865999 0.212007 0.452879
-0.416313 0.214407 0.498421 -0.943405 -0.255127 0.21189
-0.475576 0.266934 -0.724344 -0.996742 0.014468 0.0793442
-0.952698 0.297987 -0.216892 -0.89581 -0.333298 0.294003
-0.47587 0.277669 -0.717065 -0.996292 -0.00256073 0.0859936
-0.476666 0.287908 -0.731837 -0.993592 0.0445264 0.103883
0.104869 0.921392 -0.654565 0.103568 -0.778032 -0.619628
0.0950168 0.928976 -0.649006 0.140658 -0.79212 -0.593938
0.107637 0.933335 -0.629614 -0.569177 0.362129 0.738173
-0.685258 0.446518 -0.52357 -0.989431 -0.0260624 -0.142641
-0.684426 0.456876 -0.538093 -0.989494 0.0665821 -0.12833
0.503661 0.545072 -0.646679 -0.95291 -0.0103404 0.303077
-0.833145 0.513746 -0.665763 -0.429694 0.77565 0.46231
-0.858195 0.518033 -0.679682 -0.585917 0.700341 0.407706
-0.925376 0.351007 -0.289113 0.824503 0.523594 -0.214581
-0.249964 0.543768 1.00802 0.612048 -0.272077 0.742544
-0.246764 0.531949 1.02182 0.666206 -0.48848 0.563521
-0.513664 0.385821 0.505402 0.609258 0.277796 -0.742721
-0.598485 0.208356 0.818218 0.839645 -0.480332 0.25353
-0.886888 0.518357 -0.802633 0.789089 0.241129 -0.564974
0.0600708 0.803638 -0.0974225 0.0568542 -0.21995 0.973853
0.0714203 0.811062 -0.114936 0.0587682 -0.181274 0.981675
-0.955896 0.28726 -0.202538 -0.892991 -0.32149 0.314977
-0.598962 0.32521 0.629335 0.305895 0.420276 -0.854281
0.0522583 0.696144 -0.730642 0.0227794 0.900615 0.434021
0.0315578 0.684985 -0.738158 0.0198627 0.900383 0.434645
0.0423738 0.703716 -0.725137 0.0124467 0.898474 0.43885
-0.389662 0.460816 -0.875819 -0.0876916 -0.923296 -0.373944
-0.406892 0.449301 -0.880344 -0.0843727 -0.927394 -0.364447
-0.39845 0.468142 -0.869305 -0.0888472 -0.929183 -0.358784
-0.677575 0.480573 -0.501977 -0.95397 -0.120904 -0.274451
-0.88632 0.661022 -0.686551 0.797734 -0.533729 0.280632
-0.877235 0.651909 -0.673415 0.735063 -0.594787 0.32544
-0.873056 0.674954 -0.680091 0.695524 -0.655511 0.294198
-0.868439 0.643624 -0.659388 0.658901 -0.611651 0.437874
-0.893379 0.669596 -0.700976 0.819465 -0.380841 0.428296
-0.883102 0.683926 -0.693909 0.824463 -0.405375 0.394882
-0.859582 0.666683 -0.667311 -0.635214 0.660818 -0.399778
-0.753044 0.504574 -0.870518 -0.120553 -0.990892 0.0600003
-0.763851 0.491847 -0.869033 0.201351 0.908576 -0.365989
-0.879429 0.705383 -0.701935 0.843262 -0.054665 0.534715
-0.872275 0.70487 -0.718187 -0.525314 -0.594687 -0.608599
-0.886482 0.693038 -0.708873 -0.877613 -0.014292 -0.479157
-0.477448 0.287276 -0.753726 0.965318 -0.188254 -0.180893
0.0372224 0.80732 -0.126621 0.314751 -0.0920384 0.944701
0.0457634 0.805183 -0.106173 0.20377 -0.143299 0.968475
0.055362 0.809695 -0.115576 -0.163686 0.156848 -0.973964
-0.16053 0.593524 -0.798887 0.0267984 0.899664 0.435759
-0.180838 0.582688 -0.806534 0.0403986 0.897443 0.439277
-0.17035 0.601107 -0.793395 -0.0307286 -0.903846 -0.426752
-0.91466 0.620792 -0.751198 -0.996357 0.0554722 -0.0647728
-0.903312 0.591183 -0.729533 -0.924464 0.377193 0.0555986
-0.89687 0.582524 -0.715028 -0.923208 0.380525 0.0537365
-0.351493 0.452643 0.85464 -0.0501153 0.8141 0.578558
-0.275055 0.683957 -0.729761 0.00423731 0.895109 0.445827
-0.168869 -0.0579913 0.80911 0.0328083 -0.696628 0.716682
-0.653653 0.444187 -0.854763 0.706769 0.000871554 -0.707444
-0.938982 0.200913 -0.0525154 0.829757 -0.213561 -0.51565
-0.933906 0.191163 -0.0597272 0.805964 -0.195577 -0.558723
-0.930803 0.192417 -0.0380227 0.823106 -0.212899 -0.52647
-0.347591 0.491417 0.335347 0.332825 0.789701 -0.515364
-0.356981 0.505821 0.332335 0.314623 0.774629 -0.5486
0.0330867 -0.0800065 0.809682 -0.193619 -0.291048 0.936911
0.411275 0.450777 -0.918821 -0.548739 0.372521 0.748407
0.402317 0.458544 -0.913466 -0.543433 0.383536 0.746713
-0.704826 0.430857 0.548864 -0.106183 -0.584458 0.804447
-0.561728 0.728195 0.206441 0.172893 0.520899 -0.835926
-0.47463 0.26749 -0.702315 -0.995046 -0.0492434 0.0863597
0.447615 -0.117516 -0.0884999 0.748775 0.615997 0.244712
-0.153661 1.02968 -0.428621 -0.210461 0.859275 -0.466211
-0.132285 1.03114 -0.426938 0.010553 -0.803343 0.595424
-0.625951 0.173708 0.785102 -0.65832 0.751809 -0.0374009
-0.687956 0.422127 -0.603371 -0.992767 0.0381284 0.113839
-0.686971 0.412152 -0.588867 -0.992834 -0.0066038 0.119315
-0.686824 0.401833 -0.574296 -0.994939 -0.0139083 0.0995089
-0.68615 0.391748 -0.559833 -0.994994 -0.027576 0.0960548
-0.686161 0.381391 -0.545292 -0.994268 -0.0718542 0.0791757
-0.687156 0.370968 -0.530947 -0.977536 -0.194485 0.0812386
-0.623188 0.193384 0.787007 0.777795 -0.579923 0.242332
-0.94032 0.199517 -0.0740581 0.829412 -0.153409 -0.53716
-0.946242 0.209359 -0.0668908 -0.866582 0.179344 0.465695
-0.958201 0.307575 -0.209639 -0.900404 -0.330333 0.283111
-0.961464 0.296821 -0.195332 -0.898476 -0.325479 0.294625
-0.963494 0.317222 -0.202342 -0.903358 -0.337419 0.264751
-0.966896 0.306391 -0.188112 -0.899855 -0.326783 0.288918
-0.953937 0.229223 -0.0522945 -0.904641 0.197635 0.377577
-0.94751 0.220304 -0.0378325 0.883182 -0.216358 -0.416147
-0.951099 0.230405 -0.0305745 -0.895874 0.177683 0.407233
-0.959381 0.238165 -0.0666863 -0.922969 0.169971 0.34531
-0.957311 0.239371 -0.0450655 -0.913209 0.176283 0.367386
-0.962814 0.248272 -0.0594343 -0.930491 0.161288 0.328896
-0.977373 0.285514 -0.1167 -0.958202 0.0195353 0.285423
-0.973795 0.27547 -0.123947 -0.947768 -0.030681 0.31748
-0.974976 0.275916 -0.102379 -0.962877 0.0663465 0.261659
-0.971355 0.265912 -0.109682 -0.953575 0.0190341 0.300554
-0.96863 0.256398 -0.0953877 -0.949595 0.0744465 0.30451
-0.972029 0.266466 -0.0881192 -0.960565 0.108083 0.256188
-0.964609 0.247177 -0.0810586 -0.936895 0.134973 0.322505
-0.967988 0.257249 -0.0738208 -0.949432 0.150107 0.275767
-0.133725 -0.063012 0.559383 -0.245711 0.964229 0.0994435
0.0349768 -0.090425 0.825624 0.121273 0.432592 -0.893396
0.10419 0.934844 -0.603834 -0.687223 -0.00617532 0.72642
-0.941306 0.212121 -0.0226796 0.868658 -0.161018 -0.468515
-0.945309 0.221594 -0.0161619 -0.882574 0.125331 0.453162
-0.94069 0.212612 -0.00175319 0.892731 -0.0560117 -0.447096
-0.186141 0.700944 -0.107457 0.576901 -0.00216285 -0.816811
-0.137935 0.562625 1.10126 0.135222 0.00532611 0.990801
-0.951924 0.267184 -0.195899 -0.862114 -0.27269 0.427083
-0.958497 0.276572 -0.188535 -0.890114 -0.292228 0.349713
0.0760723 0.822716 -0.152284 0.0874752 -0.0829771 0.992705
0.0496246 0.821643 -0.164129 0.248129 -0.0442196 0.967717
0.0595063 0.818926 -0.144361 0.176829 -0.0928922 0.979848
0.0694148 0.827027 -0.172094 0.150104 -0.0435532 0.98771
-0.956979 0.226696 -0.11708 -0.891506 -0.0147914 0.452767
-0.924613 0.182632 -0.0451848 0.798044 -0.217906 -0.561821
-0.536612 0.337618 -0.753084 -0.529477 0.696049 0.484944
-0.689518 0.328071 -0.51661 -0.877904 -0.454109 0.151889
-0.577965 0.348553 -0.781523 0.675779 -0.645191 -0.356444
-0.537485 0.348342 -0.745659 -0.6056 0.458865 0.650147
-0.086621 0.462563 1.2996 0.0647071 -0.335939 0.939658
-0.0727253 0.473579 1.28382 0.0942666 0.373585 -0.922793
-0.96458 0.286109 -0.18099 -0.902209 -0.291163 0.318189
-0.969938 0.295731 -0.173769 -0.909779 -0.273662 0.312109
-0.972803 0.315907 -0.180499 -0.906849 -0.320631 0.273533
-0.96887 0.326826 -0.195071 -0.904533 -0.352034 0.240609
0.220966 0.373087 0.0136117 0.716749 0.482354 -0.503593
-0.850974 0.679305 -0.660782 -0.716961 0.664709 -0.210071
-0.842159 0.6914 -0.6536 -0.673345 0.658167 -0.336783
-0.856544 0.700798 -0.666244 -0.651301 0.688642 -0.318714
-0.863341 0.688253 -0.673282 0.687158 -0.687853 0.233821
-0.86666 0.708653 -0.680546 0.75392 -0.40183 0.519747
-0.877154 0.697102 -0.686683 0.807466 -0.466134 0.361549
-0.869511 0.718682 -0.695124 0.680219 0.0497693 0.731317
-0.84517 0.733797 -0.7003 0.473092 0.44764 0.758816
-0.861674 0.722542 -0.704453 0.57056 0.385273 0.725276
0.0872645 0.747376 -0.00425716 -0.0705099 -0.508498 0.858171
0.0720375 0.747473 -0.0039639 0.0925724 -0.518423 0.850099
0.0155327 0.401465 -1.00899 -0.0473366 0.909879 0.412165
-0.00577848 0.391005 -1.01759 -0.0962282 -0.910321 -0.402562
0.00278809 0.409966 -1.00652 -0.0531774 0.905354 0.421314
-0.483409 0.343513 0.518779 -0.68426 -0.412697 0.601224
-0.482336 1.00863 -0.46884 0.27201 0.665917 -0.694669
-0.20786 0.705474 -0.0566909 -0.492347 -0.0608492 0.868269
-0.202411 0.699516 -0.0378857 0.479288 0.031253 -0.877101
-0.191487 0.694578 -0.0424525 -0.517153 0.00399243 0.855884
-0.245884 0.7627 -0.243362 0.554106 -0.155601 -0.817774
-0.0805513 -0.0467736 0.794496 -0.166835 -0.475365 0.863825
-0.952132 0.218075 -0.0812066 -0.889704 0.136468 0.435663
-0.677695 0.329506 -0.560078 -0.966582 -0.151072 0.207113
-0.934999 0.193294 0.0271146 0.884357 0.0515207 -0.463959
-0.937333 0.202988 0.0126833 -0.909605 -0.0364054 0.413877
-0.655957 0.444921 -0.876313 0.885599 -0.025375 -0.463758
-0.975978 0.29514 -0.152378 -0.930379 -0.157242 0.331163
-0.966002 0.275679 -0.167094 0.91853 0.213631 -0.332664
-0.971254 0.285304 -0.159785 -0.926124 -0.180304 0.331337
-0.956169 0.338944 -0.230718 -0.907655 -0.367884 0.202049
-0.959997 0.32805 -0.216598 -0.91141 -0.339644 0.232323
-0.960408 0.348858 -0.223611 -0.914078 -0.364067 0.178654
-0.964761 0.337763 -0.20907 -0.911899 -0.351083 0.212559
-0.112034 0.689013 -0.101943 -0.6177 0.133752 -0.774956
-0.572174 0.828733 0.0280591 -0.193587 0.075862 -0.978146
-0.566572 0.823699 0.0471709 -0.117938 0.100798 -0.987892
-0.277647 0.553775 -0.821841 -0.0296794 -0.911877 -0.40939
-0.297891 0.543034 -0.829455 -0.0351058 -0.913909 -0.404398
-0.287399 0.561431 -0.816317 -0.0240451 -0.907762 -0.418795
-0.95229 0.381538 -0.244708 0.907321 0.416994 -0.053709
-0.955164 0.391834 -0.237647 0.901222 0.432025 -0.0339499
-0.948239 0.403402 -0.251784 -0.915799 -0.401631 0.00211154
-0.945205 0.393474 -0.259432 0.913388 0.405764 -0.0328258
-0.938569 0.40505 -0.273732 -0.903724 -0.427029 0.0304808
-0.969072 0.347664 -0.201966 -0.911236 -0.362014 0.196454
-0.973979 0.357322 -0.194516 -0.910232 -0.367027 0.191751
-0.969083 0.368453 -0.208799 -0.905948 -0.396322 0.148956
-0.959032 0.370011 -0.230492 -0.905502 -0.412293 0.100404
-0.962596 0.379979 -0.223093 0.900556 0.428402 -0.0739603
-0.964501 0.358798 -0.216415 -0.913118 -0.376577 0.15622
-0.973865 0.336521 -0.187651 -0.912485 -0.351324 0.209627
-0.978518 0.346256 -0.180181 -0.921354 -0.340068 0.18831
-0.717018 0.390585 -0.482445 0.540861 0.840526 -0.0313841
-0.488254 0.447286 0.385664 -0.371385 -0.681331 0.630762
-0.490175 0.432811 0.398132 -0.51869 -0.474928 0.710918
-0.478725 0.428313 0.394082 0.431631 0.578258 -0.692324
-0.283265 0.859985 -0.434971 -0.219032 -0.706104 0.673381
-0.293227 0.857416 -0.426582 0.420377 0.48068 -0.769565
-0.478253 0.837504 -0.0141115 0.11838 -0.0539252 -0.991503
-0.707626 0.4154 0.561115 0.0645963 0.683966 -0.726648
-0.332144 0.0550375 0.671753 -0.078991 -0.242428 0.966948
-0.329126 0.0465876 0.688907 0.00585622 -0.371628 0.928363
-0.316687 0.0552973 0.671002 -0.093147 -0.166597 0.981615
-0.639006 0.56498 -0.473381 -0.666982 -0.640418 -0.38079
-0.641783 0.575464 -0.466669 0.611018 0.71319 0.343535
0.133932 0.683036 0.0357109 -0.360735 -0.708709 0.606302
0.13291 0.6744 0.0407721 0.338397 0.716291 -0.610258
0.145499 0.678587 0.0318936 -0.378746 -0.687617 0.619462
-0.725413 0.491512 0.43017 -0.0347274 -0.113219 0.992963
-0.0491533 0.597524 0.0410964 0.40982 0.528262 -0.74363
-0.417062 0.735707 0.137547 -0.482718 -0.400311 0.778932
-0.428369 0.740644 0.141856 -0.474977 -0.414063 0.776498
-0.416661 0.72431 0.15213 -0.487824 -0.385144 0.783384
-0.957222 0.227195 -0.0955752 -0.908963 0.096779 0.405487
-0.0922176 0.43062 -0.924603 -0.506908 -0.786954 -0.351778
0.214662 0.301958 0.095696 -0.514299 -0.717454 0.469846
0.214262 0.313809 0.0897485 0.527271 0.535492 -0.659723
0.202335 0.307828 0.0994706 0.432325 0.739088 -0.516569
-0.461284 0.18463 0.595389 -0.955975 -0.289724 0.0466043
-0.100279 0.477636 1.26297 -0.264793 0.263489 -0.927609
-0.708856 0.988274 -0.483648 0.708321 -0.618085 0.340958
-0.70061 1.00118 -0.476728 0.570965 -0.709894 0.412371
-0.726284 0.772407 -0.141995 0.510136 0.164795 0.844159
-0.713959 0.778991 -0.138937 0.506921 0.172663 0.844522
-1.00504 0.0869425 0.560918 -0.922348 0.152711 -0.354899
-1.00622 0.0661789 0.567844 -0.959878 0.259854 -0.105406
-1.0031 0.0774527 0.575511 -0.948005 0.251217 -0.195387
-0.697014 0.978279 -0.472612 -0.59818 0.70422 -0.382433
-0.23897 0.758856 -0.223391 0.568632 -0.150374 -0.808731
-0.230109 0.75146 -0.229836 0.60882 -0.146341 -0.779694
-0.685627 0.971784 -0.456976 0.49936 -0.743705 0.444458
-0.674579 0.967764 -0.449039 0.416329 -0.79889 0.434103
-0.16238 0.563026 1.08059 0.21834 -0.112578 0.969357
-0.160305 0.560298 1.05602 -0.122375 0.340089 0.932397
0.217152 0.149761 -1.09395 -0.390724 -0.843978 0.367471
-0.0622985 0.462312 0.169279 -0.258183 -0.778412 0.572203
-0.49694 0.726161 0.179357 0.375432 0.461535 -0.803764
-0.48449 0.72287 0.176389 0.23765 0.476634 -0.84637
-0.951218 0.350124 -0.245003 0.892361 0.419269 -0.167052
-0.95533 0.360031 -0.237846 -0.906591 -0.403053 0.125064
0.39278 0.465734 -0.909201 0.562775 -0.406513 -0.719744
-0.942393 0.21274 0.0199273 -0.935916 0.0564097 0.347677
-0.939049 0.203159 0.0343164 0.941204 0.00923937 -0.337713
-0.738136 0.464367 0.504587 0.0928901 0.432783 -0.8967
-0.67822 0.581931 -0.442877 0.468753 0.829587 0.303406
-0.978142 0.32551 -0.173248 -0.923598 -0.300189 0.238439
-0.980188 0.315052 -0.159151 -0.938456 -0.216407 0.2692
-0.984244 0.324939 -0.151949 -0.960545 -0.172739 0.21798
-0.982241 0.335396 -0.166074 -0.939775 -0.273914 0.204434
-0.0189394 -0.131443 0.867147 0.0578482 -0.763156 0.64362
0.0687217 0.833044 -0.204969 0.154582 -0.0651812 0.985828
0.0798854 0.832898 -0.190713 0.103178 -0.0425113 0.993754
0.0724348 0.835512 -0.211549 0.154582 -0.0651812 0.985828
0.19033 0.827589 -0.72485 0.0987963 0.915977 0.388877
0.181523 0.834859 -0.71831 0.0894837 0.92242 0.375677
-0.938189 0.373185 -0.273586 0.880787 0.452459 -0.139622
-0.945856 0.340496 -0.252275 0.876529 0.434958 -0.206176
-0.944769 0.361656 -0.259288 0.884006 0.444567 -0.144548
-0.966292 0.265583 -0.152852 -0.929917 -0.132908 0.342914
-0.970538 0.275567 -0.14539 -0.937139 -0.105843 0.332517
-0.96387 0.24594 -0.124166 -0.930868 -0.0497701 0.361949
-0.497627 0.325256 -0.746355 0.643976 -0.418921 -0.640156
-0.720128 0.974603 -0.490498 0.640675 -0.652166 0.405235
-0.71756 1.00007 -0.497395 -0.864543 0.372044 -0.337859
-0.709974 0.966594 -0.476039 0.686925 -0.670947 0.27922
-0.699896 0.957776 -0.463256 0.690991 -0.659434 0.296103
0.521193 0.533595 -0.562329 -0.961757 -0.0606305 0.267108
0.521618 0.522065 -0.548367 -0.951605 -0.1544 0.265723
-0.662443 0.526167 -0.529891 -0.885872 0.189074 -0.423653
-0.948668 0.371595 -0.252076 0.902757 0.421393 -0.0863652
-0.445634 0.618256 0.282038 -0.0443564 -0.737813 0.673546
-0.973196 0.378413 -0.201636 0.903281 0.414058 -0.112426
-0.966259 0.389936 -0.215695 0.890881 0.451875 -0.0462693
-0.982492 0.356158 -0.172989 -0.9325 -0.312836 0.180492
-0.978184 0.36725 -0.187385 -0.91963 -0.357337 0.163067
-0.985953 0.345361 -0.158825 -0.956491 -0.232992 0.175614
-0.984909 0.314766 -0.137718 -0.970547 -0.0726026 0.229711
-0.987226 0.325045 -0.130617 -0.978959 -0.0288581 0.202005
-0.987536 0.334974 -0.14465 -0.977689 -0.120109 0.172332
-0.983236 0.305136 -0.123716 -0.97126 0.0204949 0.237137
-0.985567 0.315388 -0.116474 -0.977143 0.0618742 0.203378
-0.958056 0.40178 -0.22995 0.898368 0.439115 0.0105923
-0.258437 0.844589 -0.437124 -0.360546 -0.813999 0.455426
-0.261107 0.829799 -0.425734 -0.551834 -0.524506 0.648362
-0.494296 0.336213 0.537477 0.630634 0.446707 -0.634628
-0.0398978 0.85019 -0.616753 -0.0915076 -0.917362 -0.387392
0.0468439 0.794703 -0.0813046 0.107622 -0.295465 0.949272
0.0386258 0.788699 -0.0714806 -0.114345 0.32963 -0.93716
-0.688315 0.349542 -0.523756 -0.952364 -0.288198 0.0997188
-0.951106 0.329284 -0.238134 -0.894854 -0.378441 0.236682
-0.372236 0.572061 0.290474 -0.357584 -0.62439 0.694457
-0.359099 0.569289 0.287562 0.39769 0.568883 -0.719871
-0.955078 0.318333 -0.224059 -0.902443 -0.341119 0.263123
-0.221656 0.514902 0.24061 -0.407249 -0.737311 0.539
0.517398 0.231955 -0.200335 -0.806191 -0.432723 0.403493
0.51143 0.221193 -0.180891 0.83487 0.347946 -0.426527
0.518455 0.215293 -0.187735 0.827135 0.361168 -0.430588
-0.795943 0.51252 -0.652227 0.305556 -0.849074 -0.43094
-0.208699 0.830676 -0.449194 0.0522951 0.99417 -0.0942975
-0.277018 0.501304 -0.857031 0.0535038 0.918045 0.39285
-0.26853 0.52019 -0.845977 0.0552456 0.911865 0.406756
-0.9611 0.236487 -0.109878 -0.925587 0.0342462 0.376982
-0.964981 0.255791 -0.138495 -0.932868 -0.0807301 0.351055
-0.969688 0.265609 -0.131167 -0.944024 -0.0594155 0.324483
-0.0769217 0.490825 1.25255 -0.181163 0.351445 -0.918513
-0.0941499 0.547709 1.10977 -0.67093 0.451326 0.588352
-0.820188 0.512226 -0.852694 -0.324714 -0.942703 0.0766336
-0.824473 0.501933 -0.851288 0.333289 0.940147 -0.0710131
-0.831558 0.520546 -0.848984 0.303519 0.95208 -0.0376855
0.0316372 0.504819 0.0772678 -0.556331 -0.5212 0.647183
-0.260983 0.818109 -0.411802 0.647042 0.337908 -0.683487
-0.740391 0.9587 -0.496984 -0.667423 0.63455 -0.389734
-0.726752 0.985998 -0.504361 0.777237 -0.192133 0.599156
-0.723091 0.997761 -0.52278 0.661498 0.335859 0.670536
-0.712222 0.95519 -0.483151 -0.584707 0.721967 -0.369976
-0.702972 0.94669 -0.469393 0.65898 -0.716766 0.228018
-0.69327 0.928212 -0.460614 0.623459 -0.764149 0.165452
-0.418916 0.757806 0.10783 -0.50939 -0.38368 0.770267
-0.429579 0.7634 0.112661 -0.509362 -0.387655 0.768292
-0.418054 0.746718 0.122728 -0.499254 -0.394369 0.771504
-0.705012 0.442613 0.534063 0.12927 0.400415 -0.90717
-0.476135 0.443606 0.382314 -0.30668 -0.732349 0.607958
-0.942157 0.383149 -0.266383 -0.894705 -0.435342 0.099903
-0.258988 0.808443 -0.396086 0.642642 0.216246 -0.735017
-0.945611 0.222059 0.00549777 -0.910045 0.0805529 0.406608
-0.945345 0.222801 0.027188 -0.945246 0.116053 0.305026
-0.950448 0.23195 0.0127616 -0.924863 0.131594 0.356808
-0.842291 0.715266 -0.659566 -0.591583 0.647208 -0.480782
0.505531 0.230723 -0.173793 -0.864039 -0.310201 0.396499
0.510126 0.237466 -0.191212 0.834591 0.392082 -0.386949
-0.849413 0.723882 -0.674003 0.627437 -0.268982 0.730734
-0.827611 0.740192 -0.667593 0.624898 -0.119686 0.771478
-0.807323 0.759444 -0.67762 0.530871 0.0646849 0.84498
-0.791966 0.766524 -0.683978 0.411641 0.542062 0.732612
-0.808556 0.757783 -0.683685 0.514015 0.443928 0.733973
-0.657454 0.455259 -0.892056 0.75956 0.535827 -0.368726
0.112527 0.926885 -0.610472 0.701154 0.0525703 -0.71107
-0.843176 0.739245 -0.68949 -0.435751 -0.34414 -0.831678
-0.237633 0.652346 0.113357 -0.518389 -0.280547 0.807816
-0.226715 0.647143 0.108947 -0.498967 -0.303909 0.811586
-0.227458 0.658393 0.0943304 -0.513701 -0.443146 0.734665
-0.95273 0.425498 -0.234637 -0.89516 -0.443949 -0.0399803
-0.949731 0.414113 -0.244813 -0.911467 -0.409671 -0.0373821
-0.573136 0.698403 -0.505923 -0.919045 0.206249 0.335884
-0.57045 0.688219 -0.513317 -0.937966 0.209273 0.276451
-0.568704 0.688998 -0.491266 -0.963135 0.126907 0.237206
-0.563556 0.668853 -0.483811 -0.986792 0.0276622 0.159615
-0.564841 0.669017 -0.461772 -0.989702 -0.114712 0.0856252
-0.0694091 1.00628 -0.42626 -0.363957 -0.801692 0.474157
-0.693967 0.344031 0.615429 -0.129608 0.623891 -0.770689
-0.713648 0.340908 0.614585 0.125491 -0.688615 0.714186
-0.70395 0.327076 0.626153 0.255734 -0.626945 0.735894
-0.257053 0.798866 -0.380429 0.65507 0.197659 -0.729256
-0.88497 0.639613 -0.679742 0.825208 -0.541583 0.160374
-0.967749 0.255859 -0.116921 -0.944277 -0.010536 0.328983
0.244198 0.300709 0.0655225 0.740589 0.394366 -0.544063
0.250785 0.284494 0.0658628 0.766826 0.485983 -0.419284
-0.0350854 1.02098 -0.458363 -0.655846 -0.425676 0.623431
-0.644564 0.992589 -0.456498 0.0925217 -0.746601 0.658807
-0.645324 0.978507 -0.447089 0.156182 -0.795173 0.585924
-0.632756 0.97598 -0.445651 0.319365 -0.823537 0.468822
-0.158871 0.570695 0.140742 0.469419 0.530087 -0.706154
-0.159145 0.558377 0.154281 -0.512531 -0.478254 0.713152
-0.147241 0.554385 0.150992 0.438557 0.540365 -0.718104
-0.0357243 1.03202 -0.47282 0.686043 0.33581 -0.645428
-0.48228 0.457386 -0.869403 0.0111969 0.926975 0.374955
-0.473933 0.476231 -0.858337 0.0198685 0.944973 0.326544
-0.747117 0.946154 -0.503965 0.899904 -0.424499 0.0998683
-0.752714 0.955175 -0.518543 -0.938401 0.264405 -0.22247
-0.738506 0.937783 -0.489493 0.676159 -0.703949 0.217403
-0.722861 0.930818 -0.477155 -0.568416 0.770532 -0.288417
-0.624375 0.671282 0.254787 0.147074 -0.613421 0.775941
-0.188733 0.765511 -0.43269 -0.0240898 -0.39475 0.918473
-0.935021 0.395079 -0.281162 0.881582 0.46078 -0.102442
-0.930298 0.395787 -0.289788 -0.859303 -0.495406 0.127171
-0.648907 0.812094 0.0155782 0.159816 -0.149578 0.975749
-0.643079 0.806182 0.0345476 0.156593 -0.0936275 0.983215
-0.255555 0.788614 -0.364958 0.656715 0.221019 -0.721025
0.376995 0.172435 0.00359654 -0.760186 -0.38026 0.526801
0.00030404 0.967335 -0.456095 0.595167 0.630778 -0.497891
-0.466171 0.316006 0.520459 0.718641 0.432621 -0.54442
-0.561857 0.740382 0.19244 0.180143 0.525976 -0.831202
-0.182179 0.425938 -0.915193 -0.0604546 -0.916046 -0.396491
-0.191952 0.43356 -0.909676 -0.0634501 -0.913939 -0.40086
-0.172689 0.444584 -0.903103 0.060317 0.911957 0.405828
-0.349269 -0.117991 0.741748 -0.591267 0.648079 0.479997
-0.944075 0.210652 -0.0452951 0.859711 -0.216759 -0.462507
-0.965167 0.246319 -0.102605 -0.937732 0.0513103 0.343548
0.302722 0.315834 -0.0289257 0.721382 0.444219 -0.531298
-0.0703498 0.819936 -0.636318 0.0331119 0.898121 0.4385
-0.080151 0.827507 -0.630803 0.036767 0.89811 0.438232
-0.0594792 0.838714 -0.623266 -0.0526307 -0.895945 -0.441035
0.527513 0.502136 -0.555903 -0.952504 -0.183861 0.242759
-0.159208 0.748177 -0.327871 0.508921 -0.100711 0.854902
-0.157631 0.734166 -0.313569 0.359014 -0.129816 0.92426
-0.755059 0.954525 -0.54055 -0.92115 -0.309366 -0.236169
-0.750353 0.934546 -0.510784 -0.923315 0.365869 0.116743
-0.742722 0.925964 -0.495676 0.84662 -0.519716 -0.114586
-0.731623 0.917501 -0.482158 0.764827 -0.637464 -0.0931624
-0.714245 0.911834 -0.469392 0.57155 -0.814266 0.10149
-0.0123103 0.449006 0.157645 0.40469 0.753797 -0.517703
-0.247654 1.0631 -0.478337 -0.411874 0.592137 -0.692628
-0.245999 0.7636 -0.314435 0.538437 -0.0183629 -0.842466
-0.971199 0.278163 -0.0591666 -0.968421 0.113876 0.221796
-0.967822 0.268732 -0.044736 -0.957912 0.0738555 0.277398
-0.97137 0.27881 -0.0374652 -0.952235 0.0253616 0.304311
-0.965111 0.259253 -0.030448 -0.932256 0.0926396 0.349738
-0.969085 0.269161 -0.0231248 -0.933395 0.0844865 0.348763
-0.240151 0.758263 -0.295258 0.474268 -0.111979 -0.87323
-0.94848 0.232994 0.0344475 -0.941207 0.142449 0.306331
-0.943979 0.222321 0.0489602 -0.975504 0.0184781 0.219202
-0.259588 0.777747 -0.326292 0.685644 0.0585411 -0.72558
-0.273727 0.784713 -0.296174 0.597769 0.0249402 -0.801281
-0.268435 0.778716 -0.277736 0.554841 -0.0500904 -0.830447
-0.259085 0.771763 -0.28334 0.591477 -0.101162 -0.799951
-0.274758 0.722632 0.0523665 -0.531275 -0.350503 0.771294
-0.263434 0.717885 0.0482882 -0.522308 -0.32423 0.788714
-0.264667 0.728271 0.0333855 0.58958 0.226683 -0.775249
-0.702458 0.893629 -0.461812 0.553321 -0.832221 -0.0352648
-0.730386 0.497798 0.411519 0.0277083 -0.151948 0.988
-0.751695 0.503111 0.362449 0.211872 -0.0198908 0.977095
-0.232791 0.754607 -0.274486 0.509854 -0.127139 -0.850814
-0.795732 0.748602 -0.646846 0.284475 -0.719059 0.634057
-0.801322 0.757609 -0.661354 -0.658877 0.0532127 -0.750366
-0.0520521 0.485482 -0.936066 0.587156 0.653507 0.477678
-0.0661079 0.477719 -0.921818 0.770438 0.467823 0.43309
-0.980616 0.295604 -0.10946 -0.971101 0.0800265 0.224853
-0.950957 0.219259 -0.0596774 -0.891815 0.198519 0.406518
-0.961136 0.2371 -0.0883228 -0.925586 0.112209 0.361525
-0.471767 -0.0440147 0.688858 0.607001 -0.732368 -0.308522
-0.748452 0.923832 -0.51809 -0.904193 0.282519 0.320342
-0.741921 0.915076 -0.503073 0.871184 -0.363489 -0.330023
-0.731388 0.907213 -0.488601 0.800955 -0.524693 -0.288391
-0.720463 0.899472 -0.474404 0.752518 -0.644935 -0.133323
-0.227013 0.749378 -0.255385 0.508942 -0.0752229 -0.857508
-0.221304 0.744016 -0.236279 0.563225 -0.0961099 -0.820695
-0.49305 0.350051 0.524186 0.636441 0.444761 -0.630183
-0.566356 0.67872 -0.498575 -0.970738 0.107503 0.214734
-0.973542 0.28845 -0.0518205 -0.96641 0.0409186 0.253729
-0.976515 0.297873 -0.0661764 -0.968424 0.0879138 0.233294
-0.989472 0.355376 -0.151522 -0.974276 -0.174836 0.142188
-0.986546 0.366082 -0.165761 -0.95141 -0.272646 0.143123
-0.989993 0.345225 -0.137447 -0.985424 -0.067655 0.156083
-0.683052 0.488847 -0.559799 -0.953152 0.184924 -0.239382
0.524264 0.466481 -0.521853 -0.944623 -0.0589815 0.322814
0.00871521 0.876502 -0.369228 0.130695 -0.224139 0.965754
-0.370865 -0.110997 0.725223 0.598665 -0.599039 -0.531745
0.20098 0.124224 -1.07701 -0.326757 -0.781164 0.53199
-0.750912 0.942221 -0.558736 0.629912 0.698265 0.340054
-0.743848 0.96137 -0.548989 0.558759 0.698948 0.446386
-0.899836 0.624738 -0.707508 -0.910565 0.411098 0.0432396
-0.215373 0.738975 -0.217229 0.593882 -0.125921 -0.794637
-0.828696 0.745062 -0.696153 -0.38674 -0.497438 -0.776523
-0.965645 0.258347 -0.0520933 -0.945923 0.130152 0.297136
-0.961151 0.249319 -0.0377713 -0.921663 0.12814 0.366221
-0.956666 0.228053 -0.073998 -0.9131 0.157592 0.376048
-0.208863 0.734468 -0.197279 0.595614 -0.130887 -0.792535
-0.975169 0.305338 -0.166459 -0.920485 -0.248708 0.301416
-0.89601 0.67504 -0.732294 0.660576 0.561135 0.498766
-0.90267 0.666839 -0.722699 -0.880373 -0.038648 -0.472705
-0.203005 0.729294 -0.178303 -0.595466 0.0691747 0.800397
-0.752999 0.922207 -0.540175 -0.948638 0.201468 0.243919
-0.746195 0.913581 -0.525356 0.885602 -0.276785 -0.372959
-0.73808 0.904942 -0.510597 0.86615 -0.311655 -0.390711
-0.729331 0.896671 -0.495936 0.843778 -0.407866 -0.348831
-0.718509 0.888931 -0.481587 0.770945 -0.551989 -0.31773
-0.753501 0.895787 -0.58209 -0.969061 -0.245948 -0.0207486
-0.753496 0.911581 -0.569664 -0.983818 -0.139317 -0.112663
-0.750214 0.91605 -0.57613 -0.8429 -0.505004 -0.185717
-0.198995 0.486212 0.244442 0.414955 0.750255 -0.514714
-0.213917 0.493981 0.247054 0.393762 0.740179 -0.545057
-0.215299 0.477282 0.257634 0.460491 0.727882 -0.508071
-0.577444 0.697028 -0.528005 0.854377 -0.376688 -0.357975
-0.580302 0.70711 -0.520529 0.842512 -0.35029 -0.409232
-0.565723 0.679202 -0.476496 -0.983925 0.0341144 0.175295
-0.198357 0.722719 -0.160138 0.598665 0.040423 -0.799979
-0.982564 0.305949 -0.102243 -0.972447 0.106047 0.207609
-0.979023 0.296616 -0.0879122 -0.970559 0.134798 0.199611
-0.983424 0.316555 -0.094856 -0.976977 0.127714 0.170893
-0.975241 0.287358 -0.073513 -0.96898 0.142211 0.202125
-0.995984 0.476288 0.0147189 -0.990461 -0.0276745 -0.134988
-0.996675 0.466064 0.0290892 -0.994583 0.0400453 -0.0959217
-0.99632 0.455726 0.0433457 -0.993047 0.0969952 -0.0667055
-0.994322 0.467052 0.0506881 -0.983835 0.127757 -0.125484
-0.99447 0.446184 0.057811 -0.989662 0.133711 -0.0518688
-0.992799 0.436242 0.0720323 -0.98106 0.191124 -0.0315176
-0.989064 0.426981 0.0864656 -0.969543 0.244703 -0.0103483
-0.984868 0.417703 0.100803 -0.958366 0.285526 -0.00303672
-0.654464 0.609852 0.30053 0.128177 -0.703972 0.698566
-0.95036 0.403353 0.304346 -0.615165 -0.538127 -0.576187
-0.835411 0.653264 -0.637186 0.664341 -0.655213 0.359649
-0.501037 0.817235 0.0636055 -0.175681 -0.159652 0.971415
-0.89284 0.616128 -0.693628 -0.899051 0.437683 0.0118395
-0.955778 0.240357 -0.0233422 -0.893688 0.134101 0.42818
-0.194668 0.715026 -0.142932 0.605616 0.095104 -0.790053
-0.969682 0.26761 -0.0664375 -0.958371 0.14506 0.245932
-0.992143 0.0593337 0.604818 -0.894669 0.44278 0.0592689
0.211717 0.134517 -1.08651 -0.449749 -0.776671 0.44103
-0.755715 0.922174 -0.564123 -0.971573 -0.236683 0.0051748
-0.751194 0.912138 -0.547404 -0.935631 0.250693 0.248491
-0.742375 0.90357 -0.532726 0.87502 -0.307726 -0.373692
-0.73496 0.894841 -0.518201 0.866006 -0.301571 -0.398859
-0.726414 0.886525 -0.503589 0.85374 -0.347046 -0.388185
-0.717399 0.878328 -0.489149 0.808396 -0.46856 -0.356297
-0.885215 0.607556 -0.679546 0.866656 -0.498391 0.0226529
-0.477586 0.027249 0.687044 -0.241938 0.852459 -0.463443
-0.980325 0.307125 -0.0805612 -0.974009 0.136195 0.180992
-0.991052 0.486726 -0.0211951 -0.962289 -0.178389 -0.20537
-0.995332 0.475414 -0.00689802 -0.984214 -0.113346 -0.135927
-0.997243 0.464858 0.00740326 -0.994737 -0.0389812 -0.0947579
-0.997953 0.454654 0.0217095 -0.99804 0.0253664 -0.0572105
-0.9971 0.444739 0.0360604 -0.996258 0.0792018 -0.0345941
-0.995932 0.434838 0.0503659 -0.992646 0.118575 -0.0243743
-0.993569 0.425272 0.06468 -0.984663 0.174303 -0.00758992
-0.989916 0.415989 0.0791661 -0.972412 0.23249 0.019051
-0.985891 0.406723 0.093557 -0.964966 0.260214 0.0335903
-0.981687 0.397453 0.1079 -0.952358 0.30171 0.0445659
-0.611371 0.731497 -0.542219 0.623353 -0.593845 -0.508704
-0.74786 0.890737 -0.561054 -0.91789 0.362261 0.162005
-0.915382 0.587863 -0.160663 0.747374 0.396757 0.532931
-0.916891 0.59304 -0.146067 0.735901 0.41974 0.531289
-0.973462 0.276899 -0.0807988 -0.964354 0.131959 0.229365
-1.00129 0.0570315 0.582602 -0.934821 0.354973 0.0101407
-0.999105 0.068142 0.590061 -0.937231 0.343886 -0.057795
-1.00292 0.0890651 0.568234 -0.921627 0.150026 -0.357904
-0.994042 0.0483399 0.597103 0.884891 -0.456721 -0.0915098
-0.748756 0.901846 -0.554635 0.931628 -0.193205 -0.307799
-0.739586 0.893419 -0.540071 0.872117 -0.389836 -0.295701
-0.731233 0.884999 -0.525457 0.877311 -0.335659 -0.343014
-0.723079 0.876368 -0.510758 0.867452 -0.327654 -0.374393
-0.714545 0.867838 -0.496063 0.819685 -0.419443 -0.390108
0.00695349 0.861363 -0.627012 -0.538885 -0.8073 0.240562
-0.364712 0.339617 -0.953099 0.0911578 0.940885 0.326228
-0.658463 0.816888 -0.00714352 0.201133 -0.058804 0.977797
-0.649483 0.822639 -0.0269445 0.137661 0.0527917 0.989071
-0.668063 0.818682 -0.0267427 0.238987 0.0691868 0.968555
-0.593212 0.625671 0.292598 0.00981786 -0.726628 0.686961
-0.249678 0.0444627 0.658893 0.240377 -0.0382221 -0.969927
-0.987486 0.486344 -0.0426111 -0.947077 -0.223164 -0.230744
-0.992642 0.475255 -0.0284352 -0.971485 -0.180779 -0.153415
-0.995969 0.464423 -0.0142124 -0.988006 -0.120655 -0.096362
-0.997941 0.453886 0.000107282 -0.997109 -0.0547552 -0.0526785
-0.99852 0.443684 0.0143888 0.999584 -0.0149221 0.0246889
-0.997902 0.433786 0.0287534 0.998277 -0.0583404 0.00624445
-0.996706 0.423883 0.043055 -0.994513 0.104615 0.000279794
-0.994675 0.414284 0.0574664 -0.986561 0.161644 0.0238528
-0.991681 0.404723 0.0717526 -0.974513 0.218527 0.0506918
-0.986842 0.395712 0.0862983 -0.967295 0.244784 0.0664945
-0.982367 0.3865 0.100552 -0.956971 0.277006 0.0864545
-0.976534 0.377586 0.114872 -0.93388 0.343302 0.100061
-0.177096 0.687567 -0.0718278 0.487282 -0.0242939 -0.872907
-0.428728 0.752116 0.127277 -0.492608 -0.405296 0.770112
-0.977283 0.286202 -0.0951627 -0.964669 0.0973257 0.244827
-1.00852 0.0551755 0.560392 0.955221 -0.291736 0.0494259
-1.00301 0.0459869 0.574934 -0.925484 0.376625 0.0403967
-0.994912 0.0374048 0.589767 0.88197 -0.457736 -0.112282
-0.148646 -0.0137597 0.58922 -0.426313 0.700339 0.572523
-0.738278 0.928987 -0.576883 0.50446 0.786376 0.356558
-0.737371 0.883296 -0.547164 0.856233 -0.455637 -0.243435
-0.728363 0.874896 -0.532917 0.862602 -0.399622 -0.310195
-0.719997 0.866456 -0.518318 0.860324 -0.359434 -0.361455
-0.711691 0.857853 -0.503595 0.823565 -0.421183 -0.379927
-0.947333 0.440557 -0.242259 -0.911919 -0.404725 -0.0678333
-0.943291 0.43479 -0.253865 -0.921131 -0.385207 -0.0559715
-0.257182 0.547133 0.987967 -0.330071 -0.0349553 -0.943309
-0.15561 0.653019 0.016902 -0.274034 -0.0814214 0.958267
0.363706 -0.16153 -0.0205532 0.662975 0.667843 0.338304
-0.568287 0.677883 -0.52059 -0.949655 0.242674 0.198152
-0.565092 0.668113 -0.505897 -0.975796 0.11624 0.185233
-0.270622 0.824675 -0.406185 0.584939 0.321731 -0.744537
-0.986801 0.32591 -0.109199 -0.983258 0.0903311 0.15825
-0.983891 0.486786 -0.0642908 -0.954388 -0.0778892 -0.288231
-0.988708 0.47554 -0.0500164 -0.963686 -0.175822 -0.200986
-0.993427 0.464313 -0.0357518 -0.979487 -0.174562 -0.100668
-0.996241 0.45344 -0.0214853 -0.990738 -0.127012 -0.0480153
-0.998328 0.442927 -0.00717148 -0.997243 -0.0723934 -0.0163231
-0.998737 0.432704 0.00709812 0.999894 0.00644452 -0.0130914
-0.998185 0.422831 0.0214232 0.999063 -0.0375863 -0.0214549
-0.997296 0.412931 0.0357338 -0.995656 0.0853815 0.0371426
-0.994958 0.403345 0.0500834 -0.987652 0.140405 0.0694941
-0.991832 0.393839 0.0643204 -0.975602 0.196959 0.0969974
-0.987146 0.384799 0.078873 -0.965465 0.232702 0.117165
-0.982754 0.375587 0.0931486 -0.956717 0.264775 0.120775
-0.977096 0.366671 0.107463 -0.942173 0.303815 0.141445
-0.97051 0.357946 0.122053 -0.926137 0.35819 0.118198
0.0610638 0.54842 -0.915354 -0.125687 0.921249 0.368108
0.0415511 0.537094 -0.921922 0.104237 0.898727 0.42594
0.0512982 0.55605 -0.909831 0.130766 0.859697 0.493783
-0.950201 0.231447 -0.00893714 -0.884799 0.106526 0.453632
-1.0039 0.0351544 0.567609 -0.914821 0.398006 0.0685117
-0.995816 0.0265085 0.582446 0.878335 -0.45876 -0.134411
-0.985794 0.0183052 0.59725 -0.811715 0.553645 0.186001
-0.43437 0.339098 1.08546 -0.848975 0.527837 -0.0250856
-0.00136304 0.950472 -0.626755 -0.175084 -0.931794 -0.317971
-0.740185 0.872242 -0.55393 0.856215 -0.494257 -0.15035
-0.750643 0.87974 -0.569022 -0.963456 0.262469 0.0534936
-0.729028 0.864234 -0.539706 0.845843 -0.500124 -0.185541
-0.718634 0.855997 -0.525764 0.848111 -0.453611 -0.27376
-0.708481 0.847996 -0.511315 0.796653 -0.463062 -0.388482
-0.148133 0.649196 0.037608 0.240102 0.011081 -0.970684
0.0657593 0.816573 -0.133763 0.144191 -0.132801 0.980598
-0.143207 0.643002 0.0561218 0.353242 0.209952 -0.911669
0.176931 0.678489 -0.752844 0.248521 0.875855 0.413662
0.160246 0.666091 -0.756286 -0.167224 -0.889601 -0.425024
0.169128 0.685519 -0.745299 0.224919 0.8968 0.381001
-0.562519 0.658188 -0.491049 -0.992834 0.0224596 0.117376
-0.0674131 -0.0367572 0.777278 0.246386 0.306792 -0.919333
-0.0663074 -0.0478889 0.792731 0.19614 0.435147 -0.878736
-0.989739 0.464001 -0.057285 -0.981756 -0.110817 -0.154516
-0.993318 0.453227 -0.0430322 -0.986416 -0.14397 -0.0790991
-0.995738 0.442834 -0.0287974 -0.99104 -0.132608 -0.0159685
-0.997646 0.432301 -0.0144795 -0.99549 -0.0912168 0.0260698
-0.998343 0.422093 -0.000209862 -0.99864 -0.0279104 0.0440353
-0.997847 0.412165 0.0141265 0.998637 -0.0147626 -0.0500557
-0.997086 0.402039 0.0283473 -0.995171 0.0744263 0.0639995
-0.994575 0.392485 0.0426284 -0.98597 0.137327 0.094891
-0.991222 0.383185 0.0570602 -0.975227 0.185272 0.120859
-0.987151 0.373943 0.0713867 -0.965868 0.218653 0.13889
-0.982095 0.364929 0.0858653 -0.954853 0.25191 0.157472
-0.976605 0.355979 0.100296 -0.942811 0.284699 0.173362
-0.970749 0.347099 0.11459 -0.936686 0.312299 0.158393
-0.141919 0.632628 0.0714426 -0.424065 -0.36899 0.827052
-1.00608 0.0240543 0.560061 0.902643 -0.426368 -0.0587089
-0.996888 0.0155791 0.57524 0.86794 -0.48091 -0.124118
-0.98668 0.00736001 0.589923 -0.802336 0.563248 0.197507
-0.972126 -4.2293e-005 0.605046 -0.700141 0.665919 0.257592
-0.750704 0.879519 -0.591414 -0.966425 -0.243506 0.0820255
-0.749101 0.869021 -0.576494 -0.973967 0.182119 0.134984
-0.74231 0.860262 -0.561484 0.856349 -0.449243 -0.254652
-0.730881 0.852585 -0.547421 0.83232 -0.493344 -0.252695
-0.719531 0.844909 -0.532779 0.82062 -0.501694 -0.273652
-0.707755 0.837385 -0.518473 0.769866 -0.519076 -0.371304
-0.935012 0.56072 -0.154646 0.846207 0.357833 0.394827
-0.928019 0.579898 -0.14457 0.802698 0.397819 0.444316
-0.926206 0.574806 -0.158318 0.811999 0.371683 0.450011
-0.915302 0.598168 -0.765306 -0.996585 -0.0517464 0.0643421
-0.241757 1.08964 -0.502928 0.387621 0.386504 0.836878
-0.637597 0.819641 -0.00212881 0.128693 -0.0710976 0.989133
-0.0661234 -0.0600527 0.807443 -0.150262 -0.506239 0.849202
-0.0668868 -0.0732517 0.821542 -0.118114 -0.573188 0.810867
-0.989984 0.473446 -0.0931309 -0.975345 0.0396968 -0.217087
-0.989793 0.463741 -0.0788642 -0.985266 0.0296432 -0.168443
-0.990852 0.453096 -0.0646445 -0.98981 -0.0355757 -0.137878
-0.99254 0.443103 -0.0503975 -0.993628 -0.0948344 -0.0609157
-0.99503 0.43223 -0.0361399 -0.994441 -0.10529 0.000614701
-0.99685 0.421668 -0.0218019 -0.994377 -0.0935258 0.0496736
-0.99743 0.41145 -0.00746833 -0.996354 -0.0544014 0.0657203
-0.997463 0.401244 0.00681766 -0.997926 -0.00254456 0.0643281
-0.996512 0.391386 0.0210749 -0.994891 0.0634908 0.0784936
-0.994132 0.38183 0.0353804 -0.984749 0.134123 0.11082
-0.990721 0.372526 0.0498049 -0.974169 0.180661 0.135485
-0.986468 0.363303 0.0640993 -0.963771 0.211958 0.161922
-0.981944 0.354184 0.0783531 -0.950775 0.246044 0.188387
-0.97586 0.345366 0.0929763 -0.944526 0.272133 0.183883
-0.970127 0.336432 0.107336 -0.940434 0.276299 0.198097
-0.964676 0.327445 0.121758 0.925785 -0.322571 -0.197156
-0.949157 0.299658 0.143555 -0.971908 0.201443 0.121723
-0.87537 0.710366 -0.705767 0.715813 0.352641 0.602707
-0.42032 0.81155 -0.272942 0.164874 -0.220296 0.961398
-0.404176 0.812189 -0.27255 0.0384869 -0.162662 0.985931
0.00887604 1.01887 -0.532227 0.718314 0.193665 -0.66822
0.0180704 1.01188 -0.538066 0.700854 0.189558 -0.687656
0.00866228 1.02238 -0.542187 0.702286 -0.000500299 -0.711895
-0.575292 0.686682 -0.535222 0.869315 -0.393802 -0.298684
0.531546 0.323913 -0.957945 -0.586031 0.63297 0.505883
-0.141049 0.621461 0.0861402 0.447542 0.470327 -0.760591
-0.960964 0.250077 -0.0160634 -0.911062 0.137059 0.38882
-0.955671 0.241017 -0.00169889 -0.911908 0.13998 0.385783
-0.998804 0.00448268 0.567643 0.849831 -0.513293 -0.119656
-0.987434 -0.00351551 0.582495 -0.786045 0.583694 0.203555
-0.972553 -0.0107326 0.597298 0.68844 -0.666161 -0.286845
-0.749136 0.86915 -0.598858 -0.965325 -0.249232 0.0776601
-0.747908 0.858616 -0.583586 -0.951719 0.139349 0.27352
-0.739657 0.849718 -0.569055 0.860025 -0.369446 -0.351946
-0.729029 0.842249 -0.555069 0.816424 -0.44146 -0.372245
-0.719757 0.834005 -0.540285 0.782587 -0.483857 -0.391715
-0.705494 0.826872 -0.525772 0.715324 -0.548538 -0.432918
-0.688351 0.820198 -0.511159 0.622024 -0.586546 -0.5187
-0.670278 0.814305 -0.497052 0.521239 -0.659278 -0.541906
-0.644909 0.810145 -0.483128 -0.402033 0.744121 0.533529
0.411241 0.251224 -0.0776989 -0.4254 -0.770043 0.475467
0.412615 0.267383 -0.0872555 0.472745 0.615497 -0.630615
-0.10697 0.467646 1.28234 -0.248029 0.243272 -0.93771
-0.119131 0.465027 1.27758 0.267119 -0.192738 0.944193
-0.590217 0.780893 -0.469449 -0.729091 0.633435 0.259205
-0.581904 0.761604 -0.462344 -0.89648 0.441875 0.0327196
-0.635371 0.826597 -0.0495556 0.0462477 0.186332 0.981398
-0.61923 0.822985 -0.0698053 -0.0241466 0.316679 0.948225
-0.633619 0.823665 -0.0753954 0.0502692 0.366044 0.929239
-0.141876 0.608449 0.0993303 0.471769 0.547966 -0.690773
-0.985789 0.48391 -0.128875 -0.956632 -0.180639 -0.228527
-0.983585 0.495254 -0.121615 -0.940982 -0.146327 -0.305192
-0.990195 0.472591 -0.114606 -0.978531 -0.0935802 -0.18363
-0.992079 0.462117 -0.100405 -0.990732 -0.0136385 -0.135144
-0.992649 0.451985 -0.0861849 -0.992049 0.0257797 -0.123185
-0.992957 0.441826 -0.0719396 -0.994578 0.0135437 -0.103106
-0.993729 0.431731 -0.057692 -0.998372 -0.03032 -0.0483111
-0.994614 0.421586 -0.0434256 -0.997621 -0.0664043 0.0185353
-0.995108 0.41136 -0.0291028 -0.994297 -0.0851676 0.0641934
-0.996248 0.40082 -0.0147691 -0.994523 -0.0748831 0.0729149
-0.996475 0.390668 -0.000493833 -0.996552 -0.0240339 0.0794096
-0.995796 0.380759 0.0138112 -0.993253 0.0494967 0.104877
-0.993658 0.371166 0.0281391 -0.982769 0.123609 0.137428
-0.989969 0.361868 0.0425164 -0.97025 0.173494 0.168861
-0.985696 0.352687 0.056807 -0.958423 0.202177 0.201371
-0.980584 0.343675 0.0712683 -0.945981 0.2315 0.226999
-0.974845 0.334758 0.0856239 -0.939384 0.251878 0.232626
-0.96923 0.32581 0.0999823 -0.939556 0.25234 0.231427
-0.963044 0.316927 0.114631 -0.926808 0.288089 0.240898
-0.955991 0.308328 0.129102 -0.923636 0.321103 0.20926
-0.144007 0.59413 0.111878 -0.521353 -0.572667 0.632648
0.563637 0.256968 -0.770377 -0.485366 -0.713055 0.505937
0.552608 0.262376 -0.765827 0.559446 0.673206 -0.483543
0.553269 0.24944 -0.759016 0.70793 0.561618 -0.428277
-1.01089 0.00173293 0.545437 0.861318 -0.507364 -0.0266951
-1.00095 -0.00662756 0.560244 0.826621 -0.548854 -0.12433
-0.988223 -0.0144124 0.575085 -0.764456 0.605638 0.22093
-0.744302 0.848575 -0.591152 -0.934368 0.130792 0.331437
-0.74275 0.883174 -0.602107 0.64665 0.728432 0.226342
-0.737696 0.839473 -0.576184 0.850935 -0.334717 -0.404813
-0.7273 0.83174 -0.562132 0.816011 -0.414571 -0.40281
-0.716158 0.823951 -0.547573 0.760332 -0.477303 -0.440542
-0.701527 0.817024 -0.533177 0.672029 -0.553083 -0.492418
-0.684062 0.810683 -0.518791 0.601773 -0.586975 -0.541599
-0.664799 0.80489 -0.504622 0.515839 -0.65312 -0.554387
-1.03045 0.286509 0.300041 0.853933 0.309344 0.418455
-1.02378 0.295541 0.29246 0.814947 0.410553 0.409032
0.158321 0.164651 -1.0935 0.0812096 -0.907782 0.411506
0.139514 0.174634 -1.09759 0.128181 -0.930023 0.344421
-0.51591 0.834583 -0.0616988 0.0493135 0.303956 0.951409
-0.104243 0.459699 1.29893 0.133945 -0.26233 0.955637
-0.439864 0.33816 1.07609 0.850805 -0.520478 0.0723395
-0.506864 0.412503 0.454411 -0.553589 -0.364678 0.748698
-0.517994 0.417345 0.458671 -0.538867 -0.36351 0.759923
-0.50661 0.400588 0.469029 -0.560159 -0.358807 0.746645
0.352813 0.194801 0.0151749 0.719821 0.348118 -0.600559
0.352813 0.183501 0.0293496 0.716442 0.425588 -0.552798
0.359445 0.183688 0.01871 0.729268 0.413806 -0.544915
0.0235737 -0.0608003 0.729908 -0.349519 0.133596 0.927356
0.0255741 0.846449 -0.639056 0.57589 0.789965 -0.21049
-0.97736 0.506504 -0.133863 -0.898009 -0.239493 -0.369082
-0.981536 0.484157 -0.150429 0.924093 0.312404 0.220128
-0.9873 0.47244 -0.136042 -0.965372 -0.209857 -0.154977
-0.991092 0.46168 -0.121858 -0.985071 -0.12614 -0.117148
-0.993001 0.451194 -0.107666 -0.994625 -0.0498953 -0.0907308
-0.994495 0.440664 -0.0934723 -0.997799 -0.000116279 -0.0663072
-0.99439 0.430921 -0.0792114 0.999209 -0.0219956 0.033116
-0.994017 0.420745 -0.0649974 0.999897 -0.00737264 -0.0123366
-0.993552 0.410964 -0.0507594 -0.998186 -0.0238215 0.0552954
-0.993732 0.400728 -0.0363884 -0.993983 -0.0776388 0.0772633
-0.994701 0.390469 -0.022071 -0.993308 -0.0873894 0.0755103
-0.995541 0.380029 -0.00778225 -0.995298 -0.0331122 0.0910297
-0.994785 0.370165 0.00646959 -0.991381 0.0385753 0.125205
-0.992474 0.36059 0.0207811 -0.980196 0.114288 0.16172
-0.988797 0.351313 0.0351422 -0.964994 0.168528 0.200961
-0.984341 0.342211 0.0493976 -0.949163 0.200023 0.243066
-0.978949 0.333259 0.0637858 -0.941017 0.217531 0.259166
-0.973565 0.324283 0.0782206 -0.93765 0.229296 0.261221
-0.967409 0.31538 0.0928253 -0.932988 0.245988 0.262724
-0.961807 0.306437 0.10722 -0.927805 0.265412 0.262174
0.106016 -0.230253 0.937819 0.293314 -0.954114 0.060286
0.103737 -0.251438 0.929116 0.0184051 0.768435 0.639663
-0.678745 0.913097 -0.446367 0.577107 -0.814531 0.059055
-0.686092 0.908366 -0.454304 0.575429 -0.813423 0.0849935
-0.393878 0.673232 -0.79605 -0.00928402 0.934914 0.354754
-1.01413 -0.00957006 0.537711 0.840466 -0.533933 -0.0923759
-1.02035 0.0102532 0.530391 0.863784 -0.495727 0.0901763
-1.00281 -0.0176689 0.552557 0.80631 -0.567179 -0.167847
-0.988873 -0.0252683 0.567726 0.745192 -0.617759 -0.251121
-0.405733 0.101077 0.592266 0.48065 0.0502532 -0.875471
-0.149527 0.539642 0.163103 -0.546635 -0.575326 0.608433
-0.743768 0.848477 -0.613373 -0.976585 -0.0982213 0.191402
-0.740705 0.838452 -0.598331 -0.925063 0.160672 0.344154
-0.422843 0.225305 0.525235 -0.915532 -0.229445 0.330387
-0.733375 0.829654 -0.583707 0.835653 -0.307032 -0.455429
-0.723551 0.821835 -0.569436 0.789361 -0.390723 -0.473546
-0.712267 0.814006 -0.554931 0.733996 -0.442298 -0.515386
-0.697666 0.807112 -0.540605 0.654757 -0.543674 -0.525083
-0.679955 0.801044 -0.526406 -0.589335 0.599307 0.54177
-0.660777 0.795266 -0.512236 0.509029 -0.645713 -0.569161
-0.635823 0.790617 -0.497905 -0.451249 0.701359 0.551787
-0.607993 0.786826 -0.483565 0.534634 -0.736791 -0.413891
-0.746102 0.858788 -0.606073 -0.941663 -0.334088 0.0407056
-0.151645 0.525227 0.175104 -0.564024 -0.579928 0.587844
-0.544231 1.05967 -0.506962 0.04258 0.602724 0.796813
0.554451 0.346497 -0.362864 -0.964859 -0.132351 0.227003
0.549747 0.368463 -0.36249 -0.937806 -0.162446 0.306808
0.551137 0.351911 -0.350106 -0.959308 -0.138157 0.246256
-0.554078 1.06724 -0.501455 0.0122042 0.428376 0.903518
-0.224908 0.0315282 0.694771 -0.198564 -0.110707 0.973815
