ply
format ascii 1.0
element vertex 822
property float x
property float y
property float z
property float nx
property float ny
property float nz
end_header
-0.465968 -0.424399 -0.0597058 0.870378 -0.442417 -0.216124
0.544821 1.14609 0.473234 0.558399 -0.822254 -0.109955
0.58129 1.10563 0.480901 0.636192 -0.745303 -0.199459
0.578878 1.1164 0.472146 0.622834 -0.769981 -0.13859
0.565594 0.821839 0.247546 -0.919494 0.362898 -0.151119
0.592801 0.713896 0.148574 -0.945097 0.27417 -0.177825
0.594999 0.704537 0.133191 -0.970037 0.174627 -0.168917
-0.14329 -0.910213 0.0482347 0.735084 -0.64235 0.216882
-0.149738 -0.899593 0.0349197 0.7533 -0.619872 0.219766
-0.307769 -0.775694 0.089025 -0.0519418 0.73283 0.678427
-0.283947 -0.785673 0.0889362 0.275438 -0.83599 -0.474609
0.156252 -0.526436 -0.597259 0.364247 -0.384189 0.848365
-0.384146 -0.262589 -0.186879 0.534056 -0.690546 -0.487782
-0.386337 -0.27331 -0.180283 -0.651478 0.627648 0.426186
0.0860845 -0.271135 -0.427107 0.383074 -0.532025 0.755118
0.105359 -0.278901 -0.419862 -0.528852 0.772971 -0.350473
0.0895022 -0.291546 -0.441124 0.0357755 0.078831 0.996246
-0.204355 -0.323005 -0.256031 0.435491 -0.520019 -0.734798
-0.211527 0.613305 0.876833 -0.0564429 -0.891518 -0.449455
-0.220289 0.604656 0.88148 -0.0468228 -0.893824 -0.445966
-0.200775 0.59463 0.889822 -0.0684562 -0.902713 -0.424762
-1.08148 -0.136866 -0.141578 0.814664 -0.447884 0.368406
-0.037058 -0.30852 -0.337669 0.396839 -0.647315 -0.650771
0.541056 0.73507 -0.0242462 0.850056 -0.0484763 0.524457
0.543431 0.747215 -0.0106447 0.854849 -0.085174 0.511838
0.184453 0.368601 -0.341928 -0.357559 -0.712977 -0.603171
0.198181 0.361036 -0.334682 -0.330012 -0.702739 -0.630278
0.224953 0.346233 -0.318488 -0.374012 -0.712102 -0.59416
0.212095 0.353487 -0.328023 -0.34596 -0.702528 -0.621905
0.595144 1.11489 0.452131 -0.61642 0.775953 0.133877
0.595328 0.69389 0.118806 -0.977891 0.0855517 -0.190812
-0.320793 -0.679045 0.0308192 0.481415 -0.82536 -0.294992
-0.319954 -0.690108 0.0399506 -0.424823 0.832729 0.355089
-1.01096 -0.218552 0.110338 0.833649 -0.0828228 0.546049
-0.0646627 -0.44297 -0.578639 0.141262 -0.435356 0.889106
0.0273296 -0.392641 -0.374111 -0.398053 0.18215 0.899097
-0.175664 0.237005 0.694523 0.211817 -0.050478 -0.976005
-0.00413989 0.00467841 0.451068 -0.126945 0.794293 -0.594124
0.171266 0.375878 -0.350634 -0.359953 -0.706675 -0.609134
0.616069 1.11511 0.428004 0.705279 -0.692118 -0.153475
0.553355 0.857821 0.283225 -0.983211 0.15323 -0.099076
0.558476 0.841094 0.255546 -0.960194 0.261855 -0.0972649
0.59453 0.682928 0.104535 -0.968965 0.031227 -0.245219
0.358834 1.26904 0.345052 0.0152323 -0.936998 0.349003
-0.889419 -0.141847 0.281312 0.680175 -0.651097 0.336802
-0.940846 0.0351441 0.472464 0.706267 0.208165 0.676649
-0.310137 -0.657722 -0.00648751 0.730226 -0.682095 -0.0389487
-0.307558 -0.668326 0.00395261 0.694275 -0.714465 -0.0867303
-0.297302 -0.668367 -0.0158526 0.765458 -0.642965 0.0258803
0.48248 0.296209 0.203036 -0.733719 -0.398538 0.550295
-0.219746 0.390555 0.836539 0.473099 0.829166 -0.297759
-0.172955 0.149901 0.640263 0.349038 0.15617 -0.924004
-0.159626 0.152806 0.638795 -0.236988 -0.149965 0.959868
-0.102405 -0.999046 -0.0846777 -0.624299 0.15787 -0.765067
0.592795 0.671314 0.0907309 -0.959058 -0.015495 -0.282784
-0.222384 0.384942 0.818732 -0.646744 -0.440578 0.622586
-0.222282 0.375811 0.802963 0.657332 0.2378 -0.715099
-0.322143 -0.658014 0.0122959 -0.619465 0.760805 0.193491
0.657776 1.02071 0.409546 -0.94273 0.295713 0.154321
0.650206 1.02728 0.427027 0.908128 -0.352986 -0.225177
0.590487 0.659016 0.0772379 -0.954229 -0.0672133 -0.291426
0.507855 0.907906 0.11638 0.83525 -0.255228 0.487047
0.00676774 -0.349796 -0.354423 0.417274 -0.41848 -0.806695
0.639983 1.03261 0.445646 -0.870213 0.397585 0.290958
0.587253 0.646627 0.063987 -0.951191 -0.133261 -0.278348
0.469965 0.648423 -0.163995 0.733693 0.187143 0.653201
-0.598301 -0.554039 -0.205508 0.49206 -0.799126 -0.345362
-0.579621 -0.564284 -0.214062 -0.42041 0.714952 0.558658
-0.590611 -0.572693 -0.199252 0.601091 -0.737619 -0.307583
-0.515337 -0.204037 -0.340719 0.642723 0.00824015 0.766054
-0.506227 -0.21146 -0.335338 0.595791 -0.00331659 0.803133
-0.329482 -1.02155 -0.141921 -0.499105 0.67414 0.544454
-0.346066 -0.356855 -0.214381 -0.304627 -0.0625487 0.950416
-0.333552 -0.352747 -0.216426 0.321117 0.0240677 -0.946734
-0.338947 -0.336006 -0.20514 0.364697 -0.0660656 -0.92878
0.665461 1.07786 0.321538 -0.900943 0.430589 -0.0537994
-1.05063 -0.207728 -0.219334 -0.874647 0.440402 -0.20258
0.582791 0.633451 0.0511946 -0.947958 -0.113802 -0.297364
0.20674 1.2198 0.408008 -0.449281 -0.745891 0.491725
0.469432 0.797417 -0.0927303 0.760917 -0.0805979 0.643824
0.460988 0.80523 -0.0985912 0.749445 -0.0791886 0.657313
0.658425 1.1025 0.258683 -0.900904 0.343793 -0.264911
0.569057 0.472004 0.0302371 -0.959659 -0.279877 -0.0269111
0.572036 0.473871 0.0479315 -0.971171 -0.236624 0.0289076
0.568674 0.459964 0.0486097 -0.954784 -0.288869 0.0702967
-0.773763 0.676621 0.628965 0.166033 -0.934631 -0.314481
0.676787 1.05016 0.297884 -0.981209 0.175109 -0.0810322
0.670736 1.07004 0.305211 -0.933757 0.345437 -0.0936548
0.500126 0.500864 -0.127837 0.849403 0.333217 0.409245
0.677834 1.04021 0.28316 -0.991057 0.066709 -0.115571
-0.257282 -0.355605 -0.240863 0.271696 -0.142325 -0.951801
0.158862 0.168051 -0.226349 0.224185 0.950603 0.214696
0.160613 0.154019 -0.208941 -0.244262 -0.960923 -0.130239
-0.965102 -0.00925303 0.415139 -0.850531 0.252754 -0.461207
-0.95793 -0.00728658 0.435435 0.817861 -0.0934902 0.56777
-0.921252 -0.386971 -0.0871394 -0.463578 0.195548 -0.864209
-0.933508 -0.381565 -0.0916672 0.607114 -0.0953788 0.78887
-0.923546 -0.398753 -0.100685 -0.42914 0.316007 -0.846155
0.580326 0.62106 0.0376287 -0.960864 -0.061727 -0.270055
-0.719169 -0.435521 0.0653774 -0.0814692 0.680082 -0.728595
-0.0630246 -0.514655 -0.479118 0.0573103 -0.794102 0.605077
-0.432145 -0.088511 0.650446 0.40504 0.283173 -0.869342
-0.420753 -0.0830594 0.647347 -0.412094 -0.317731 0.853947
-0.422758 -0.0716082 0.66164 0.373349 0.214699 -0.902505
-0.0383263 -0.494512 -0.424773 -0.113982 -0.523209 0.844547
0.673107 1.02884 0.247295 -0.971095 0.00344836 -0.238667
-0.16783 -0.078624 0.435049 -0.503161 -0.606812 0.615312
-0.178546 -0.0847116 0.438551 0.493012 0.586086 -0.642995
-0.170213 -0.084843 0.417096 -0.51951 -0.527659 0.672076
-0.892378 -0.455331 -0.213159 -0.344835 0.938631 0.00773748
0.577967 0.608667 0.0240413 -0.968773 -0.0642301 -0.239484
0.575547 0.596999 0.010378 -0.965918 -0.109535 -0.234532
0.562424 0.832538 0.239515 -0.940621 0.316335 -0.123145
0.422269 0.697261 -0.200155 0.715798 0.129323 0.686228
-0.624289 0.177019 -0.100765 0.0679909 -0.387648 0.919296
0.662112 1.00016 0.402699 0.949992 -0.201032 -0.23896
-0.412763 -0.3157 -0.154805 0.77943 0.171707 -0.602499
0.571234 0.583866 -0.00244884 0.950592 0.175579 0.256023
-0.351728 -0.593969 -0.0333644 0.73928 -0.666677 0.0949037
-0.346525 -0.604647 -0.0209723 -0.710163 0.703526 -0.0268314
-0.339797 -0.604391 -0.0436626 0.777537 -0.585945 0.228265
-0.462706 -0.391519 -0.111637 -0.996883 -0.0733594 -0.029032
0.671725 1.0175 0.233639 -0.96737 -0.0184592 -0.252695
0.674395 0.985053 0.244713 -0.931007 -0.364375 -0.0213736
0.663834 1.01343 0.392571 -0.951292 0.270395 0.148088
0.566354 0.569916 -0.0150435 -0.925139 -0.221794 -0.308098
-0.872097 0.039666 0.581588 0.732014 0.16805 0.660238
0.158139 0.896541 0.779029 -0.0730948 -0.901003 -0.42761
0.150291 0.887036 0.783035 -0.0641726 -0.886308 -0.458628
0.170941 0.876141 0.79096 0.0600367 0.859553 0.507508
-0.134776 -0.243156 -0.354022 -0.0485953 0.954078 -0.295591
-0.830506 0.0246591 0.617996 0.65855 0.0874828 0.747435
-0.822669 0.0165314 0.624554 0.633049 0.0250037 0.773708
-0.816043 0.031472 0.636731 -0.625928 -0.176526 -0.75964
0.0398754 0.569283 0.95286 0.625317 0.690772 -0.363059
0.0300593 0.561513 0.958001 0.628006 0.695111 -0.349899
0.507487 0.994066 0.600954 0.673345 -0.419405 -0.608856
0.5113 1.01059 0.593099 0.693824 -0.542205 -0.473944
0.222157 0.862079 0.801706 0.0527071 0.88539 0.461851
0.200412 0.873863 0.79431 0.0485011 0.876651 0.478675
0.212327 0.8543 0.806931 0.0794584 0.850851 0.519365
0.554608 0.782193 0.0755688 -0.901266 0.253449 -0.351401
-0.805964 0.0487084 0.648309 0.612951 0.25376 0.748263
-0.211623 -0.861335 -0.113348 0.717069 0.0893468 0.691251
-0.2063 -0.846169 -0.0989652 0.791592 -0.00871619 0.610988
-0.202646 -0.868849 -0.107777 0.711182 0.0602603 0.70042
0.541646 0.523458 -0.0491472 -0.897928 -0.245774 -0.365131
0.536176 0.509453 -0.061686 -0.918674 -0.209092 -0.33514
-0.0497726 -0.00324572 0.456882 0.424523 0.520744 -0.740679
-0.270756 -0.366093 -0.242246 -0.233564 0.0782764 0.969186
-0.52637 0.050272 -0.181818 0.547849 -0.142202 0.824403
-0.522681 0.0337844 -0.192284 0.53873 -0.0444425 0.841306
-0.53755 0.039751 -0.198221 0.531109 -0.0332874 0.84665
-0.236237 -0.765832 -0.00743112 0.824203 -0.556085 0.107046
-0.071457 -0.266798 -0.34254 0.325973 -0.858913 -0.39498
0.121048 -0.401754 -0.476996 -0.0511711 0.0133781 0.9986
0.108219 -0.403389 -0.476957 0.0684578 0.0105865 -0.997598
0.107124 -0.38446 -0.466974 -0.080562 0.0883587 0.992826
-0.158296 -0.242077 -0.401478 -0.118121 -0.697714 0.706571
-0.145443 -0.240676 -0.40173 -0.0966112 -0.726205 0.680656
-0.157224 -0.251431 -0.417833 0.163012 0.492049 -0.855169
-0.143504 -0.290788 -0.413488 -0.209999 0.518268 0.829034
-0.156266 -0.296492 -0.410038 0.184336 -0.456407 -0.870467
0.0257617 -0.474694 -0.59582 -0.282131 0.615053 -0.736283
0.0118127 -0.465712 -0.580129 0.296093 -0.68482 0.665846
-0.268087 -0.43797 -0.479108 -0.499737 0.73545 0.457577
-0.0126781 -0.314488 -0.431138 -0.0931771 0.377564 0.921284
-0.0255255 -0.317601 -0.430194 -0.0895873 0.374071 0.923063
-0.0267333 -0.288132 -0.428453 0.09159 -0.496711 -0.86307
-0.088562 -0.354542 -0.432489 -0.0800146 0.13764 0.987245
-0.0874772 -0.373464 -0.442214 -0.0550132 -0.0316209 0.997985
-0.101344 -0.356536 -0.431706 -0.0854861 0.090178 0.99225
0.132744 -0.380791 -0.467884 -0.0780673 0.13112 0.988288
0.133887 -0.399994 -0.477243 0.0585138 -0.035842 -0.997643
0.119946 -0.382661 -0.467388 -0.0797421 0.110567 0.990665
-0.182586 -0.256869 -0.414791 0.199155 0.307327 -0.930531
-0.195454 -0.261163 -0.412877 -0.205896 -0.18728 0.960486
-0.196818 -0.247187 -0.400448 -0.244918 -0.554762 0.795145
-0.179456 -0.347039 -0.420753 -0.0116721 -0.0642542 0.997865
-0.192257 -0.348688 -0.420609 0.00564329 -0.139462 0.990211
-0.193368 -0.329878 -0.410795 -0.0913032 0.173656 0.980565
-0.0834997 -0.010577 0.482188 0.478595 0.452119 -0.752685
-0.083452 -0.0195954 0.466136 -0.47621 -0.491241 0.729319
-0.142152 -0.318738 -0.41536 -0.150786 0.3418 0.927597
-0.141193 -0.343174 -0.42099 -0.0955755 0.148299 0.984313
-0.153767 -0.344712 -0.420672 -0.0662714 0.0883775 0.99388
-0.154916 -0.321884 -0.413718 0.134937 -0.296824 -0.94535
-0.16914 0.136197 0.627333 0.338703 0.0947767 -0.936108
-0.0140067 -0.286298 -0.429598 0.11343 -0.489927 -0.864353
0.617716 1.10297 0.147949 0.729002 -0.0642727 0.681488
0.613449 1.09004 0.135404 0.694214 0.10962 0.711372
0.608999 1.11021 0.142764 0.682502 -0.0530664 0.728955
-0.132693 -0.239611 -0.40145 -0.079384 -0.75974 0.645363
-0.144339 -0.248662 -0.418681 -0.141916 -0.560403 0.815971
-0.480171 -0.424919 -0.0422812 -0.739611 0.259188 0.621125
-0.485485 -0.672683 -0.219024 -0.114351 0.615311 0.779946
-0.178307 -0.362982 -0.432815 0.134785 -0.347968 0.927767
-0.191042 -0.361578 -0.434779 -0.214429 0.486959 -0.846694
-0.40888 -0.271773 -0.0642579 0.903932 0.40134 -0.147761
0.0931863 -0.366006 -0.457784 -0.10974 0.182315 0.977097
0.0803206 -0.368973 -0.456908 -0.110709 0.15647 0.981458
0.0792929 -0.344998 -0.450038 -0.135924 0.260992 0.955724
-0.162311 -0.384476 -0.486409 -0.34162 0.698116 -0.62923
-0.175069 -0.380619 -0.489879 -0.321285 0.688511 -0.650176
-0.175986 -0.376058 -0.469804 -0.338419 0.702483 -0.626091
-0.163442 0.120162 0.615759 0.352725 0.0692754 -0.933159
-0.187914 -0.377012 -0.493405 -0.290321 0.65764 -0.695142
-0.20072 -0.374138 -0.496367 -0.228049 0.598794 -0.767749
0.44205 0.717371 -0.169532 0.71188 0.0534089 0.700268
0.437787 0.73836 -0.162464 0.696072 0.0221088 0.717632
0.596083 1.18409 0.309358 0.71628 -0.612642 0.334085
0.603625 1.17584 0.315697 0.742055 -0.599779 0.299364
0.127377 -0.489762 -0.555147 -0.207374 0.351282 -0.913015
0.128549 -0.501533 -0.570169 0.256871 -0.441037 0.859944
0.115652 -0.498077 -0.573471 -0.284056 0.48953 -0.824423
0.0878245 -0.473546 -0.546029 0.150451 -0.419539 0.895182
0.100633 -0.47463 -0.544292 0.142362 -0.37419 0.91636
0.088953 -0.484136 -0.561839 -0.23648 0.5027 -0.831487
0.0512541 -0.300178 -0.438095 -0.118343 0.385173 0.915225
0.0525516 -0.325709 -0.442137 0.124527 -0.324189 -0.93776
0.0384117 -0.30324 -0.436904 0.123592 -0.433588 -0.892595
-0.107833 -0.0376553 0.454748 -0.44314 -0.557066 0.702357
-0.108856 -0.0452022 0.437886 0.423826 0.588703 -0.688332
-0.0972271 -0.0402527 0.435144 0.433319 0.571022 -0.697258
-0.315737 -0.635235 -0.0543372 0.794248 -0.50466 0.338362
-0.403632 -0.00117592 0.704733 -0.282167 0.0231791 0.959085
-0.390261 0.00168679 0.703266 0.301413 -0.0403654 -0.952639
-0.398475 0.0208093 0.713482 0.332017 -0.116219 -0.936087
0.476395 1.25423 0.320208 0.232328 -0.867866 0.439127
0.463381 1.25765 0.315709 0.199358 -0.858275 0.472884
0.462542 1.25561 0.341206 0.252683 -0.890671 0.377964
0.475181 1.25178 0.344696 -0.273204 0.904544 -0.327352
0.477215 1.25478 0.296327 0.193236 -0.859262 0.473633
0.464485 1.2571 0.293886 0.182508 -0.859216 0.477952
0.47825 1.25523 0.273555 0.219474 -0.829702 0.51325
0.465359 1.2578 0.27026 0.18523 -0.839692 0.510497
0.438775 1.26177 0.288138 0.179214 -0.854388 0.487753
0.128507 -0.510359 -0.586513 -0.32115 0.50034 -0.804066
0.116838 -0.507327 -0.590183 -0.334473 0.534138 -0.776417
0.579787 0.735229 0.0880473 -0.902173 0.260149 -0.344101
0.577433 0.744613 0.103433 -0.884902 0.360025 -0.295517
0.500445 1.08283 0.568427 -0.532657 0.75645 0.379553
0.0857863 -0.450011 -0.516065 -0.0476415 0.332934 -0.941746
0.0986036 -0.449887 -0.515144 0.0462407 -0.299295 0.95304
0.0867584 -0.461643 -0.531058 0.0929379 -0.378093 0.921091
0.643748 1.12821 0.283945 0.839931 -0.501129 0.20829
0.517017 0.677222 0.605087 -0.970105 0.154152 0.187438
0.469949 1.08919 0.585498 0.449898 -0.839575 -0.304476
-0.0843391 -0.0720528 0.32501 0.334633 0.708574 -0.621243
-0.0755042 -0.0725016 0.303962 -0.339217 -0.757902 0.55724
0.0920434 -0.507392 -0.614693 0.375482 -0.339731 0.86232
0.0909385 -0.499324 -0.597549 0.350877 -0.576479 0.737941
-0.326234 -0.345936 -0.215991 0.305868 -0.0263846 -0.951708
0.479199 1.25286 0.252732 0.250879 -0.752488 0.608951
0.437757 1.26249 0.30995 0.182798 -0.847324 0.498625
0.424986 1.26466 0.307554 0.176217 -0.84847 0.499045
0.113455 -0.47543 -0.542792 0.136045 -0.335727 0.932083
0.12632 -0.476213 -0.541318 0.141618 -0.297716 0.944092
0.114525 -0.48762 -0.557525 -0.212533 0.391704 -0.895208
-0.206031 0.702041 0.818629 0.0466093 0.895196 0.443228
0.241503 -0.491931 -0.522062 0.390404 -0.106945 0.914411
0.254334 -0.496772 -0.51778 0.496229 -0.0925426 0.863245
0.242689 -0.508099 -0.534 0.415267 -0.0965345 0.904563
-0.158636 0.105285 0.603479 -0.410531 -0.032041 0.911284
-0.108426 -1.01462 -0.0991767 -0.556953 0.0288875 -0.830041
-0.103059 -1.03632 -0.108559 0.494762 -0.0199307 0.8688
-0.114858 -1.03056 -0.113311 0.474186 0.0220491 0.880149
0.103673 -0.503165 -0.594028 0.349385 -0.554166 0.755533
0.0899379 -0.492427 -0.579277 0.296642 -0.581269 0.757714
-0.0897322 -0.331713 -0.425692 0.118743 -0.302943 -0.945582
-0.102457 -0.333626 -0.424682 0.11891 -0.273979 -0.954356
-0.688983 0.915016 0.663819 0.204271 0.719667 -0.66359
0.423889 1.26494 0.329351 0.159258 -0.889292 0.428714
0.43675 1.26226 0.332885 -0.183459 0.882188 -0.433691
-0.585467 0.900471 0.715218 -0.086277 -0.901316 -0.424483
-0.576571 0.883107 0.728537 0.0282073 0.914152 0.404389
-0.140191 -0.411302 -0.303024 0.313955 -0.0985633 -0.944308
-0.084184 -0.0277573 0.449494 0.472653 0.528081 -0.7055
-0.0856029 -0.0352782 0.432338 0.458181 0.556519 -0.693078
0.669938 1.03949 0.23928 -0.963617 -0.00640949 -0.26721
0.66838 1.02809 0.225638 -0.960541 -0.0159406 -0.277682
0.632418 1.05173 0.453319 -0.830343 0.467514 0.303252
0.643771 1.04709 0.434204 -0.893099 0.393029 0.218866
-0.153903 0.0904418 0.591277 -0.198146 0.0386396 0.979411
-0.139567 0.0921499 0.590461 0.12689 -0.135802 -0.982576
-0.126141 -0.485884 -0.390483 -0.0401037 -0.563933 0.824846
-0.11091 -0.484916 -0.390112 -0.0178322 -0.536502 0.84371
-0.0524449 -0.295638 -0.425576 0.099069 -0.490786 -0.865629
-0.065245 -0.297419 -0.424876 -0.0903241 0.492862 0.865407
-0.0663182 -0.258426 -0.428528 -0.112012 -0.0331657 0.993153
0.102892 -0.495655 -0.576048 -0.301667 0.537121 -0.787717
-0.0932524 -0.0712409 0.346009 -0.373676 -0.689254 0.620722
0.530567 0.495468 -0.0741402 -0.911084 -0.252626 -0.325739
-0.476756 -0.364176 0.0314616 0.74373 0.371859 -0.555507
-0.395625 0.344924 0.925988 -0.179906 -0.670472 0.719792
-0.397309 0.337932 0.908437 -0.138476 -0.585725 0.798593
-0.383115 0.339818 0.907474 0.24367 0.558573 -0.792856
-0.177418 0.276647 0.713564 -0.135266 0.0733603 0.98809
-0.170742 0.296741 0.723006 0.127759 -0.0902671 0.987689
-0.0226095 0.0103221 0.470488 0.0506246 -0.764131 0.643072
-0.0119547 0.00556646 0.450949 0.0236744 0.794526 -0.606769
-0.00354541 0.00252759 0.473899 0.348647 -0.843479 0.408642
0.00756873 -0.253757 -0.385051 -0.25786 0.958515 0.121481
0.0196455 -0.259451 -0.383015 -0.29332 0.926922 0.234051
0.0220056 -0.248554 -0.407973 0.235475 -0.891627 0.38672
-0.145334 0.0709246 0.581821 -0.143849 0.0780316 0.986518
-0.128326 0.0691877 0.583113 0.0997412 -0.0248568 -0.994703
0.105298 -0.315947 -0.391974 -0.356988 0.603616 0.712887
-0.496213 -0.322933 0.138157 0.59683 0.358537 -0.717805
-0.0511619 -0.322527 -0.428528 0.097056 -0.35086 -0.931385
0.240149 -0.474666 -0.510597 -0.348003 0.0786791 -0.934186
0.253506 -0.48023 -0.50638 -0.442963 0.0786592 -0.893082
0.397471 0.23378 0.216479 0.412289 0.626785 -0.66118
0.382074 0.224516 0.200439 0.34685 0.769584 -0.53613
0.398049 0.230149 0.193544 0.376251 0.78643 -0.48986
-0.672686 0.682211 0.435706 -0.943664 -0.192134 0.269412
0.656995 1.05928 0.202321 -0.936808 0.0312167 -0.34845
-0.370608 -0.22109 -0.269289 0.146432 -0.834575 0.531076
0.326002 0.946331 0.715327 -0.585771 0.558453 0.587369
0.25566 -0.513998 -0.529211 0.477127 -0.0969481 0.87347
0.264439 -0.502244 -0.514656 0.532553 -0.0790313 0.842699
0.515761 0.8356 0.0360357 -0.789574 0.236928 -0.566073
0.507815 0.843713 0.0300558 -0.783886 0.234952 -0.574735
-0.13689 0.0514731 0.572389 -0.219024 -0.121926 0.968072
-0.123532 0.0543688 0.5709 -0.219175 -0.193602 0.956285
0.0535957 -0.351165 -0.44791 -0.123186 0.22598 0.966312
0.0547164 -0.37266 -0.455938 -0.0998488 0.111929 0.988687
0.0408468 -0.353073 -0.446919 0.115456 -0.210805 -0.970686
-0.560326 -0.424875 0.0439809 0.342349 0.53706 -0.77095
-0.561095 -0.433195 0.0268534 0.336958 0.52294 -0.782939
-0.428183 -0.211374 0.444075 0.171617 0.400745 -0.899973
-0.415215 -0.217854 0.426634 0.260132 0.550726 -0.793115
-0.383813 0.330853 0.890835 0.235423 0.517895 -0.822412
-0.361785 0.0899641 0.713905 -0.486575 0.271219 0.830473
-0.351307 0.0964483 0.710273 -0.501013 0.23664 0.832459
-0.586394 0.333678 1.08206 -0.154246 -0.403568 0.901854
-0.571355 0.335282 1.08087 0.1977 0.265866 -0.94352
-0.575576 0.348124 1.09759 -0.268507 0.0250751 0.962951
0.44177 0.265947 0.219616 0.64195 0.465301 -0.609422
0.430946 0.250859 0.207137 0.620601 0.530554 -0.577379
0.443907 0.260678 0.19725 0.660269 0.500174 -0.560241
-0.134716 0.0394549 0.558602 0.287191 0.319651 -0.902964
-0.122437 0.0438185 0.556179 0.211882 0.283184 -0.935368
-0.503158 -0.66361 -0.217203 -0.26715 0.656561 0.705379
0.524393 0.480426 -0.0852993 -0.889616 -0.291589 -0.35151
0.472637 0.707761 -0.139061 0.741415 0.076387 0.666685
0.464419 0.71564 -0.145198 0.733074 0.0750571 0.675995
0.46938 0.729064 -0.13294 0.736184 0.0504666 0.674897
-0.00344345 -0.244681 -0.41206 0.118059 -0.808097 0.577097
-0.00236836 -0.25264 -0.429467 0.0637523 -0.0219431 0.997724
-0.0162393 -0.243624 -0.413715 0.0860641 -0.731868 0.67599
0.462359 0.773592 0.691149 -0.591717 0.755134 0.282214
0.42825 0.791062 0.702303 -0.588477 0.758066 0.281125
0.425058 0.765105 0.725581 0.794735 -0.596685 -0.111189
-0.133819 0.0298376 0.543064 -0.21449 -0.202585 0.955486
-0.120457 0.0327101 0.541591 -0.0582795 -0.137988 0.988718
0.553891 0.83503 0.148065 -0.901837 0.251176 -0.35157
-0.707244 0.586023 0.432645 0.709586 0.687906 -0.152555
-0.75238 -0.480762 -0.0948929 -0.422019 0.53721 -0.730278
0.16099 0.0366771 0.195816 0.28659 0.766241 -0.5751
0.168464 0.044277 0.217823 -0.384828 -0.672094 0.632611
0.147888 0.0361048 0.219525 0.336772 0.755393 -0.562109
-0.0726528 -1.14662 -0.117699 -0.623124 -0.722711 0.299009
-0.0716139 -1.13765 -0.0954434 -0.419982 -0.541304 0.728427
-0.0851864 -1.14217 -0.0996579 0.188421 0.497862 -0.846541
0.00981832 -0.454475 -0.541624 -0.238927 0.631771 -0.737414
-0.00294256 -0.451865 -0.544235 -0.270431 0.667032 -0.694216
-0.00395527 -0.446097 -0.525014 -0.197433 0.617399 -0.761471
-0.953847 0.0425506 0.156789 -0.950417 0.222844 0.216907
-0.949086 0.0320079 0.143266 -0.98373 0.148627 0.100919
-0.955013 0.0319984 0.164185 -0.935916 0.278564 0.215554
-0.210937 -0.374834 -0.263694 -0.296781 0.13062 0.94597
-0.204118 -0.392266 -0.273944 -0.241917 0.0585182 0.968531
-0.199423 -0.369688 -0.266377 0.323515 -0.18906 -0.927143
0.226844 -0.455459 -0.502352 -0.282565 0.0531672 -0.957774
0.213731 -0.452525 -0.504773 0.223023 -0.0542307 0.973304
0.21268 -0.434835 -0.494103 -0.2007 0.0232749 -0.979376
0.435281 0.965982 0.0366387 0.70397 -0.277034 0.653972
0.434089 0.976911 0.0499932 0.701731 -0.319846 0.63661
0.11883 -0.361058 -0.459479 -0.102737 0.226174 0.968654
0.106033 -0.362942 -0.458819 0.111056 -0.206873 -0.972044
-0.0920152 -0.265243 -0.426178 -0.0819792 0.280799 0.956259
-0.104762 -0.267105 -0.425467 -0.114177 0.389993 0.913712
-0.106038 -0.24283 -0.420604 -0.0275594 -0.228508 0.973152
0.282617 -0.468865 -0.465783 -0.934683 0.274895 -0.22539
0.283495 -0.481575 -0.480395 0.931909 -0.088753 0.351666
0.277334 -0.460346 -0.470831 -0.947919 0.243936 -0.204804
0.516081 0.803548 -0.00749701 0.786571 -0.233553 0.571629
0.515749 0.792645 -0.0218047 0.78518 -0.176124 0.593694
0.507839 0.811552 -0.0134402 -0.783112 0.238718 -0.574238
0.506343 0.533901 -0.125059 0.84798 0.330737 0.414178
0.478787 0.309234 0.299668 0.761573 0.621969 -0.182104
0.483851 0.309423 0.316538 0.80106 0.578709 -0.152967
0.476737 0.298803 0.318632 -0.805099 -0.58682 0.08636
-0.344123 0.39868 1.054 -0.344413 0.671655 -0.655941
0.0109487 -0.460861 -0.560168 -0.29559 0.66968 -0.681289
-0.00194464 -0.457547 -0.563483 -0.295388 0.674522 -0.676584
0.0717486 -0.327296 -0.379832 -0.345837 0.518142 0.782257
0.0541733 -0.317066 -0.373596 0.346392 -0.577249 -0.739457
-0.282966 -0.374879 -0.243865 -0.216054 0.0599424 0.97454
0.507633 0.800682 -0.0278227 0.783097 -0.181044 0.594964
-0.975476 -0.227665 0.161562 0.765108 -0.0126981 0.643777
-0.979872 -0.240844 0.148822 0.762959 -0.0733657 0.64227
0.00772365 -0.438084 -0.506628 0.0844939 -0.458681 0.884575
-0.00514083 -0.43734 -0.508077 -0.125252 0.506085 -0.85334
-0.00617581 -0.426678 -0.492278 0.0621886 -0.393741 0.917115
0.497826 0.696404 0.686409 0.823031 -0.320283 -0.469083
0.504433 0.70144 0.677583 -0.84869 0.35254 0.394259
-0.435093 -0.466176 -0.0811445 0.834388 -0.47651 0.277011
-0.441245 -0.457081 -0.0879209 0.839747 -0.454301 0.297381
-0.451321 -0.366171 -0.0328139 -0.818001 -0.396524 0.416704
-0.457792 -0.377714 -0.0403653 0.807296 0.41992 -0.414657
-0.189728 0.309928 0.736181 -0.310653 0.0496293 0.949227
-0.177375 0.313962 0.733987 0.00654286 0.0424448 0.999077
0.496351 1.18116 0.472017 -0.391634 0.917376 0.0710297
0.521602 1.18358 0.446362 -0.473059 0.878924 0.0608914
-0.461287 -0.198283 -0.269851 0.478419 -0.525543 0.703506
-0.460432 -0.205328 -0.287892 0.352339 -0.545142 0.760709
-0.537548 0.129141 -0.119438 0.0795046 -0.0718233 -0.994244
-0.554484 0.13044 -0.122742 0.186216 -0.10801 0.976554
0.0769803 -0.489206 -0.582486 0.309279 -0.616925 0.723705
0.0761706 -0.481719 -0.564398 -0.246052 0.559579 -0.79141
0.130388 -0.335035 -0.454297 -0.0288107 0.238177 0.970794
0.131641 -0.358128 -0.460209 -0.0838914 0.237945 0.967649
0.11759 -0.336781 -0.453948 -0.0812528 0.283046 0.955658
-0.128065 0.0136521 0.531381 -0.136814 -0.0328659 0.990051
-0.111133 0.0125777 0.532109 -0.0149514 -0.14374 0.989503
0.216623 -0.388028 -0.416486 0.375487 -0.551601 -0.744812
-0.584977 -0.249991 0.375722 -0.0573061 -0.710954 0.7009
-0.0550294 -0.372561 -0.326394 0.425495 -0.283683 -0.859347
-0.0634627 -0.383074 -0.324361 -0.408651 0.239944 0.880586
-0.101586 0.316201 1.09202 0.288531 0.582682 -0.759758
-0.32258 -0.815604 0.0827451 0.687766 -0.225436 0.690041
-0.362346 -0.299258 -0.397956 -0.04915 0.383756 -0.922126
-0.580404 0.408196 0.816055 -0.845009 0.529762 0.072882
-0.573172 0.402268 0.799886 -0.892376 0.446687 -0.0643046
-0.569269 0.39138 0.807337 0.863718 -0.49018 0.117112
-0.745779 0.864724 0.635126 0.32135 0.127468 -0.938342
-0.75832 0.860205 0.638349 0.313198 0.134485 -0.940117
-0.405114 -0.274204 -0.13802 -0.955433 0.0488764 0.291133
0.575252 0.731284 0.427841 -0.928839 0.292589 0.227267
-0.271941 -0.732424 0.0267564 0.728737 -0.676294 -0.107556
0.545725 0.475286 -0.0370291 -0.880391 -0.345838 -0.324512
0.553002 0.491813 -0.0261872 0.887199 0.276024 0.369716
-0.361153 -0.594192 -0.0125428 -0.608059 0.781262 0.141044
-0.121344 -0.00370544 0.520374 0.234815 0.179512 -0.95532
-0.10776 -0.0012238 0.519088 -0.291843 -0.322907 0.90031
-0.118324 -0.0165751 0.506635 -0.355503 -0.339118 0.870986
-0.106751 -0.0116277 0.503904 0.39878 0.397653 -0.826345
-0.172415 0.59324 0.893562 -0.0508955 -0.896947 -0.439199
-0.182181 0.585469 0.898801 -0.0555401 -0.896809 -0.438918
-0.161657 0.574533 0.906606 0.0253103 0.89324 0.448866
-0.567987 0.394804 0.784294 0.906384 -0.405769 0.117556
-0.563364 0.387316 0.768849 -0.939467 0.283934 -0.191788
-0.558545 0.377025 0.775917 -0.927338 0.299492 -0.224386
-0.228438 -0.354928 -0.465132 -0.309807 0.669237 -0.675382
-0.241405 -0.351608 -0.468563 0.223822 -0.613949 0.756949
-0.266961 -0.817098 0.100181 -0.236024 0.717633 0.655206
-0.165534 -0.362738 -0.431995 0.06213 -0.217717 0.974032
-0.164436 -0.374817 -0.446769 -0.231532 0.532681 -0.814029
-0.732665 0.869255 0.632278 0.269569 0.174801 -0.946983
-0.169036 -0.299607 -0.408635 -0.141958 0.379814 0.914106
-0.167728 -0.324939 -0.412656 0.114702 -0.26353 -0.957808
-0.181761 -0.301364 -0.407388 -0.125002 0.349733 0.928473
-0.860157 0.17512 -0.000503607 -0.482641 -0.378909 0.789611
-0.864072 0.175625 0.0158495 0.586231 0.365517 -0.723001
-0.152692 -0.362268 -0.431447 -0.00237248 -0.12983 0.991533
-0.0158973 -0.448672 -0.547486 -0.274011 0.688045 -0.671947
-0.0170004 -0.443374 -0.528033 -0.230361 0.653454 -0.721062
-0.901993 0.720815 0.739576 -0.922303 0.379924 0.0708144
-0.908684 0.720274 0.760659 -0.939542 0.341127 0.029903
-0.90948 0.730721 0.752584 -0.936343 0.345164 0.0642115
0.137083 -0.449692 -0.512572 0.0448126 -0.198821 0.979011
0.138089 -0.463494 -0.526032 0.087845 -0.245125 0.965503
0.125351 -0.463455 -0.527165 0.0861032 -0.279939 0.956149
-0.118108 -0.0260145 0.490788 0.433648 0.432222 -0.790654
-0.106525 -0.020892 0.48794 -0.451583 -0.442528 0.774753
-0.803142 0.117677 0.659405 0.493142 0.432727 0.754691
-0.784379 0.124029 0.668823 0.428691 0.44273 0.787537
-0.419829 -0.30788 -0.0408361 -0.954025 -0.161881 0.252253
-0.549944 0.831079 0.768569 0.0873891 0.910274 0.404678
-0.558634 0.822336 0.773162 0.0971103 0.917727 0.385157
-0.541038 0.813735 0.781952 0.084403 0.923809 0.373434
0.500103 0.830487 -0.00497349 -0.782789 0.257723 -0.56641
0.500138 0.819766 -0.0194864 -0.77971 0.238347 -0.579002
0.491957 0.83854 -0.0109595 0.779412 -0.260226 0.569911
-0.139878 -0.361529 -0.431238 -0.0227152 -0.0870808 0.995942
-0.138794 -0.376671 -0.443583 0.0710555 -0.30581 0.949437
-0.151603 -0.376873 -0.444435 0.152703 -0.414731 0.89704
0.423893 0.203044 0.371378 0.83204 0.514329 -0.207788
0.417259 0.192076 0.37334 0.846075 0.505508 -0.169173
0.446052 0.952504 0.0387029 0.766345 -0.224438 0.60195
0.44783 0.955455 0.0461433 0.776824 -0.23976 0.582288
-0.166619 -0.346345 -0.420605 -0.0402125 0.0189469 0.999011
-0.834616 0.182624 -0.00449558 -0.436223 -0.276266 0.85638
-0.163127 -0.380674 -0.465642 -0.325292 0.687331 -0.649431
-0.177137 -0.37202 -0.449563 0.290344 -0.619303 0.729496
-0.180575 -0.328033 -0.411399 -0.10896 0.228149 0.96751
-0.151808 0.582302 0.901374 0.0172912 0.899548 0.43648
-0.117976 -0.0352002 0.474778 0.458951 0.493866 -0.738553
-0.106425 -0.0300221 0.471937 0.455154 0.494022 -0.740795
-0.184011 -0.848507 0.00340004 0.817001 -0.552253 0.165908
-0.199 -0.832351 0.0167556 0.793759 -0.599141 0.104772
-0.0968539 -0.0758343 0.32713 -0.375058 -0.684309 0.625343
-0.1376 -0.387337 -0.458917 -0.206661 0.563144 -0.8001
-0.150399 -0.384651 -0.462063 -0.282026 0.641661 -0.713255
0.115859 -0.337011 -0.394815 -0.3028 0.48973 0.817604
-0.462121 -0.104962 -0.18995 0.7655 0.0238591 0.642993
0.490094 1.25213 0.299641 -0.225219 0.862503 -0.453172
-0.585031 -0.0237251 -0.252844 0.520117 0.146255 0.841479
-0.587743 -0.0172525 -0.252358 0.483744 0.163242 0.859851
-0.573502 -0.0297101 -0.247761 -0.516496 -0.154366 -0.84226
-0.169772 -0.253899 -0.416231 -0.186943 -0.401499 0.896577
-0.482516 -0.176185 -0.261642 -0.611172 0.195974 -0.766852
0.461744 0.94683 0.0652151 0.799726 -0.244646 0.548258
0.490942 1.25282 0.275994 -0.237756 0.823044 -0.51582
0.492117 1.25021 0.255982 0.274472 -0.742166 0.611437
0.493281 1.24511 0.237672 0.291121 -0.630559 0.719475
-0.118661 -0.0434416 0.458132 0.437135 0.568168 -0.697207
-0.0669139 0.307157 1.03715 -0.426349 -0.681509 0.594787
-0.0797388 0.302404 1.04157 0.331295 0.698428 -0.634383
-0.082213 0.299235 1.0221 0.287031 0.816078 -0.501626
0.585798 0.490664 0.260513 0.888798 0.189268 -0.417392
0.584752 0.501075 0.275829 -0.864972 -0.166819 0.47328
0.484884 0.911371 0.0691845 -0.793892 0.23207 -0.56203
0.47725 0.919663 0.0630603 -0.793758 0.235176 -0.560928
0.477296 0.930356 0.0774409 0.793389 -0.24985 0.555076
0.433484 0.986072 0.065021 0.66146 -0.387755 0.641963
-0.121185 -0.0495019 0.440138 0.435937 0.592665 -0.677279
0.436447 1.26007 0.357434 0.185605 -0.919801 0.345713
0.417427 1.2602 0.368348 0.148021 -0.948536 0.279945
0.431153 1.25519 0.380293 -0.164189 0.954422 -0.249242
-0.464096 -0.830681 -0.137683 0.853638 -0.515701 0.0731685
-0.4759 -0.814044 -0.127699 0.872944 -0.459301 0.164349
-0.476789 -0.807593 -0.140968 0.845308 -0.530672 0.0619839
-0.13434 -0.401864 -0.518487 -0.294186 0.66474 -0.686713
-0.148312 -0.393192 -0.502402 -0.331736 0.701928 -0.630276
-0.200567 0.389172 0.849932 0.0107688 0.999876 0.0115026
-0.19955 0.404392 0.828677 -0.242326 -0.892725 0.379896
-0.122892 -0.0564673 0.422756 0.433307 0.557429 -0.708179
-0.111133 -0.0518259 0.420076 0.405375 0.567385 -0.71676
0.500689 0.895047 0.0812665 -0.794333 0.243639 -0.556484
0.492828 0.892512 0.060869 0.781983 -0.230931 0.578942
0.0348278 -0.253428 -0.403592 -0.250894 0.934036 -0.254224
0.0611382 -0.460763 -0.533566 0.110588 -0.442158 0.890093
0.0622379 -0.471388 -0.54934 -0.18069 0.515806 -0.837434
0.0482778 -0.459937 -0.53504 -0.138578 0.479321 -0.86663
-0.806801 0.800924 0.614313 0.221638 -0.247375 -0.94323
-1.11106 -0.0939274 -0.0243432 0.774425 -0.435896 0.458542
-1.10827 -0.102545 -0.0391129 0.768019 -0.464801 0.440577
-0.485106 -0.141063 -0.238361 0.685501 -0.0784215 0.723836
-0.49404 -0.170074 -0.266531 -0.615157 0.161804 -0.771623
-0.488635 -0.154902 -0.25292 -0.645734 0.0449292 -0.76224
0.4877 0.793202 -0.0674055 0.770969 -0.101985 0.628654
0.485412 0.781225 -0.0807728 0.774043 -0.0781341 0.628293
0.479831 0.8014 -0.0732814 0.772447 -0.105208 0.626304
-0.123606 -0.0646695 0.406143 0.440497 0.50575 -0.74174
-0.112072 -0.0595645 0.403303 0.421871 0.511484 -0.748605
-0.677515 0.197843 -0.0743756 -0.247463 -0.0853762 0.965129
0.508877 0.887013 0.0871801 0.804325 -0.251491 0.538344
0.516359 0.878663 0.093348 0.81956 -0.26166 0.50976
-0.351174 -0.341282 -0.202437 -0.312654 0.00032492 0.949867
0.185055 -0.396196 -0.477155 0.0369551 0.0882743 0.99541
0.18613 -0.415282 -0.486645 0.0458421 0.0142374 0.998847
0.196546 -0.375942 -0.466956 0.254384 0.0322096 0.966567
0.183951 -0.376001 -0.468308 0.0838278 0.115593 0.989753
0.198964 -0.416022 -0.485419 0.142332 0.0170689 0.989672
0.20003 -0.433711 -0.495996 0.140082 -0.0292975 0.989706
0.187252 -0.432832 -0.497545 0.0937433 -0.0452973 0.994565
0.18834 -0.450384 -0.508461 -0.164643 0.0789155 -0.983191
0.201091 -0.451401 -0.506727 -0.162903 0.0571592 -0.984985
0.189388 -0.46674 -0.520127 0.168783 -0.128304 0.977267
0.202069 -0.467969 -0.5181 -0.191152 0.111857 -0.975166
0.203255 -0.483867 -0.530483 -0.214998 0.161531 -0.963163
0.190612 -0.482565 -0.532589 0.215806 -0.172658 0.96105
0.204213 -0.499019 -0.542987 0.258866 -0.200081 0.944963
0.191422 -0.496842 -0.545493 -0.221068 0.220295 -0.950052
0.205251 -0.513845 -0.555875 -0.336489 0.159551 -0.928073
0.192354 -0.510514 -0.55903 0.292318 -0.248403 0.923497
-0.342561 -0.68001 0.0421006 -0.21628 0.856869 0.467972
0.193543 -0.525023 -0.572293 -0.434695 0.143696 -0.88904
-0.185072 -0.243546 -0.379007 -0.100104 -0.831008 0.547179
-0.18397 -0.245552 -0.400796 -0.14916 -0.604836 0.782256
-0.197907 -0.245293 -0.378721 -0.0992084 -0.811567 0.575774
-0.124255 -0.073103 0.389536 0.446272 0.548246 -0.707295
-0.112074 -0.0684936 0.387219 0.407147 0.552491 -0.727314
-0.0423402 -0.242111 -0.419112 -0.0894446 0.486548 -0.869063
-0.126106 -0.0797557 0.372009 -0.423501 -0.656693 0.62402
-0.113835 -0.0753077 0.369761 -0.382628 -0.657787 0.648777
-0.00827772 -0.399664 -0.464455 0.0442799 0.131752 -0.990293
-0.00725276 -0.414437 -0.477519 0.00254199 -0.272053 0.962279
-0.0211377 -0.401025 -0.464666 0.0297992 0.171848 -0.984673
0.0396131 -0.330003 -0.44085 0.121378 -0.314391 -0.941502
0.0256322 -0.30637 -0.43551 -0.128083 0.411002 0.902592
0.569314 1.17512 0.406261 0.568467 -0.821984 -0.0344617
0.54933 1.17545 0.429679 -0.542631 0.835636 0.0852258
0.0842264 -0.00244161 0.259617 -0.589278 -0.528779 0.610855
0.0947008 0.00484722 0.256263 0.666265 0.513306 -0.540932
0.0862115 0.00890061 0.280553 -0.583098 -0.52912 0.616464
0.0499633 -0.270105 -0.43607 0.275968 0.0175886 0.961006
0.0371739 -0.270628 -0.436096 0.0152861 0.271721 0.962255
0.172227 -0.396725 -0.477538 0.0219497 0.082166 0.996377
0.173351 -0.415664 -0.487357 0.00118847 -0.00386271 0.999992
0.160551 -0.416281 -0.487679 0.00432965 -0.0275598 0.999611
0.174393 -0.432275 -0.498572 0.0443896 -0.0677391 0.996715
0.161602 -0.432765 -0.499102 -0.0103098 0.0932408 -0.99559
0.16819 -0.518752 -0.578647 -0.319369 0.362713 -0.875467
0.649933 1.10169 0.214994 -0.864804 0.188824 -0.465252
0.166971 -0.507013 -0.56359 -0.234872 0.337266 -0.91164
0.179912 -0.50894 -0.561445 -0.265632 0.291137 -0.919064
0.165881 -0.493614 -0.549663 -0.198131 0.262349 -0.944414
0.178814 -0.495487 -0.547539 0.213275 -0.247273 0.945183
0.195161 -0.543428 -0.583167 0.576098 -0.041561 0.816323
0.1649 -0.479716 -0.536236 0.142623 -0.203361 0.96866
0.17767 -0.480717 -0.534604 0.171593 -0.189281 0.966813
0.162636 -0.449062 -0.510933 -0.0419631 0.13615 -0.989799
0.175401 -0.448883 -0.50993 0.0845641 -0.103011 0.991079
0.16386 -0.464632 -0.523678 0.127049 -0.176766 0.976019
-0.409183 -0.215208 -0.276851 0.15599 -0.728955 0.666552
-0.423051 -0.210475 -0.258216 -0.256997 0.769861 -0.584181
0.206807 -0.532108 -0.566773 0.423576 -0.066748 0.903398
0.214237 -0.521848 -0.557056 -0.393294 0.1105 -0.912749
-0.382885 0.365671 1.00027 0.423469 0.588946 -0.688343
-0.372783 0.363224 0.980091 0.361754 0.646865 -0.671342
-0.275452 -0.393058 -0.25446 -0.205569 -0.00485346 0.978631
-0.0704054 -1.06749 -0.108639 -0.552574 0.0227107 -0.833154
0.0920752 -0.341829 -0.451539 0.142477 -0.280707 -0.94916
-0.379922 -0.593866 -0.16032 0.635716 -0.0630196 0.769347
0.159461 -0.397365 -0.477748 -0.0288306 0.0617753 0.997674
0.158302 -0.377179 -0.468665 -0.0444618 0.155259 0.986873
0.176473 -0.464887 -0.522143 0.138349 -0.146124 0.979544
0.678225 0.995095 0.272926 -0.995081 -0.087251 0.0469237
-0.331175 -0.226945 -0.285783 0.16117 -0.840347 0.517534
-0.332387 -0.230685 -0.260967 0.213254 -0.932183 0.292504
-0.318376 -0.229392 -0.283232 0.185503 -0.880814 0.43561
-0.847053 0.177606 -0.00167315 0.462693 0.254976 -0.84906
0.18254 -0.354984 -0.459543 0.252387 0.00861506 0.967588
0.633779 1.1297 0.349422 0.847377 -0.505485 0.162597
0.63926 1.12211 0.333131 0.853418 -0.498974 0.150677
0.628098 1.13908 0.342564 0.835869 -0.520646 0.173928
0.411125 1.26718 0.326957 0.162829 -0.891814 0.422084
-1.00845 -0.227551 -0.13831 0.733477 -0.428292 0.527804
-0.0871738 -0.0424778 0.415031 0.469416 0.544253 -0.695297
-0.0767663 -0.0447423 0.395296 -0.529637 -0.508218 0.679117
-0.017974 -0.43634 -0.509713 -0.163674 0.557354 -0.813982
-0.943188 0.151928 0.501342 0.914224 0.289511 0.283511
-0.940513 0.156803 0.50618 0.897896 0.297445 0.324515
-0.944598 0.164556 0.493518 -0.904549 -0.240394 -0.352138
-0.113126 -0.37552 -0.442708 -0.0248835 -0.149573 0.988438
-0.125922 -0.376206 -0.442998 0.0228365 -0.220681 0.975079
-0.127023 -0.360107 -0.431069 -0.0526245 -0.0247789 0.998307
0.230787 0.736374 0.872365 0.688228 0.719833 -0.0904579
0.238558 0.745852 0.868357 0.696809 0.716586 -0.0309985
0.225254 0.73432 0.855246 0.743817 0.64674 -0.168714
-0.114172 -0.358397 -0.431187 -0.0691313 0.0338016 0.997035
-0.12814 -0.339808 -0.422355 0.121747 -0.202961 -0.971589
-0.100461 -0.0635183 0.384427 0.428487 0.545718 -0.720133
0.0184292 -0.412965 -0.476908 -0.0583274 -0.193411 0.979382
0.00560772 -0.413777 -0.477129 -0.0229766 -0.230782 0.972734
0.00450135 -0.398734 -0.464471 -0.0713449 -0.0962228 0.9928
0.171048 -0.375517 -0.468807 0.0132256 0.141413 0.989862
0.0104714 -0.252199 -0.42893 0.144305 -0.265784 0.953171
0.104786 -0.339876 -0.452609 0.121134 -0.293723 -0.948184
0.515487 0.888894 0.108114 0.838204 -0.26636 0.475885
0.103588 -0.313546 -0.447391 0.0676893 -0.231628 -0.970447
0.116309 -0.311799 -0.447965 0.0143823 0.118611 0.992837
0.115425 -0.293524 -0.438719 0.143189 -0.127056 0.981506
-0.423171 -0.0941849 -0.133813 0.778584 0.307355 0.54712
-0.434802 -0.0871534 -0.146511 0.759142 0.256754 0.598148
-0.408823 -0.264109 -0.12194 -0.983192 -0.0391021 0.17834
0.556518 0.852556 0.246964 -0.980978 0.190178 -0.038907
0.556362 0.848971 0.26201 -0.96545 0.244886 -0.089089
-0.396803 -0.262922 -0.168472 -0.898248 0.337198 0.281865
-0.396987 -0.252393 -0.177039 0.857736 -0.464671 -0.219931
0.615697 1.15546 0.35268 0.783392 -0.601043 0.158254
0.678164 1.03884 0.306389 -0.994526 0.104442 0.00324246
0.0669191 0.0287459 0.673256 0.033065 -0.289636 0.956566
0.0792373 0.0418245 0.686505 -0.0277542 -0.34755 0.93725
-1.13717 -0.0606056 -0.028112 -0.848066 0.329977 -0.414609
0.553077 1.14683 0.120901 -0.420542 0.0788614 -0.903839
0.564988 1.15608 0.136388 0.515821 -0.224748 0.82669
-0.291141 -0.671932 -0.0271423 0.809158 -0.570347 0.141308
-0.283913 -0.67961 -0.0460124 0.825204 -0.490334 0.280375
0.444846 0.695631 -0.175951 0.723581 0.10394 0.682369
0.438327 0.681034 -0.18826 0.721364 0.150447 0.676018
-0.122873 -0.40107 -0.495435 -0.320419 0.710263 -0.626784
-0.121594 -0.405812 -0.514942 -0.319009 0.690341 -0.649355
-0.135646 -0.397234 -0.498891 -0.332354 0.70804 -0.623073
0.00339252 -0.381076 -0.453753 -0.0859188 0.0250822 0.995986
-0.00941757 -0.38292 -0.453338 -0.0731163 -0.00330045 0.997318
-0.129581 -0.0845664 0.353162 -0.447313 -0.682591 0.577911
-0.117873 -0.0799164 0.350395 -0.386721 -0.708049 0.590859
-0.117527 -0.271463 -0.42313 -0.148953 0.486012 0.861165
-0.11644 -0.311207 -0.418518 -0.13441 0.418367 0.898278
-0.130763 -0.282633 -0.419 -0.220898 0.561173 0.797677
-0.115381 -0.337849 -0.423317 0.130267 -0.246142 -0.96044
-0.129387 -0.315567 -0.417049 -0.145399 0.414718 0.898258
0.674539 0.99875 0.336636 -0.993156 -0.11657 -0.0073074
0.65466 0.988327 0.194668 -0.775913 -0.58415 -0.238179
-0.13162 -0.2466 -0.419484 0.0356924 0.24565 -0.968701
-0.422716 -0.563063 0.000480986 -0.262787 0.847469 0.461237
-0.118827 -0.244643 -0.420303 -0.0876722 -0.110432 0.990009
-0.119927 -0.238759 -0.401136 -0.0822371 -0.774999 0.626589
-0.0735567 -0.388912 -0.453796 0.0115409 0.176772 -0.984184
-0.0724602 -0.402619 -0.467282 0.080233 -0.355795 0.931113
-0.0853074 -0.402001 -0.468582 0.114016 -0.430257 0.895477
0.119647 -0.538469 -0.62742 -0.0579457 0.757782 0.64993
0.13329 -0.535088 -0.621108 -0.360193 -0.00345017 -0.932871
-0.426635 -0.17247 -0.16513 0.897884 -0.0660136 0.435255
-0.493957 -0.133447 -0.244071 0.68304 -0.0634383 0.727621
-0.504019 -0.126577 -0.249521 -0.646924 0.04781 -0.761054
-0.811319 0.207619 -0.00232342 -0.465753 0.0474634 0.883641
0.622549 1.14857 0.335771 0.823857 -0.535854 0.184714
0.476595 0.733473 0.697696 0.658428 -0.596429 -0.459069
0.460882 0.760435 0.700128 -0.597322 0.698018 0.394939
0.441949 0.737781 0.723681 -0.799085 0.580743 0.155568
-0.821699 0.188046 -0.00785149 0.442702 0.223224 -0.868439
-0.820628 0.180193 -0.0248492 0.37804 0.35602 -0.854597
-0.469728 0.346331 1.03227 0.267512 0.679937 -0.682732
-0.0105434 -0.363936 -0.44372 -0.112594 0.148869 0.982426
-0.0232338 -0.364845 -0.443121 -0.10207 0.125112 0.986878
-0.0244437 -0.343064 -0.435914 0.105212 -0.25541 -0.961091
-0.0795762 -0.442113 -0.581 -0.0703129 -0.0658931 0.995346
0.0696922 -0.284683 -0.387963 0.313831 -0.799729 -0.511805
-0.0458609 -0.456747 -0.593605 -0.00571807 -0.0511332 0.998675
-0.521156 -0.267042 0.256743 -0.16295 -0.760628 0.628405
-0.184038 0.29386 0.724521 -0.256931 0.0472178 0.965276
-0.133088 -0.0893132 0.334332 -0.49917 -0.557862 0.663038
-0.232041 -0.77612 2.37471e-005 0.826711 -0.556471 0.0829984
-0.528969 0.123858 -0.122318 -0.0834458 0.330523 0.940102
-0.112059 -0.389192 -0.456219 0.0936295 -0.359668 0.928371
-0.124927 -0.388794 -0.457372 0.147724 -0.458127 0.876526
-0.0701876 -0.42106 -0.500566 0.270152 -0.656997 0.703827
-0.225106 -0.806222 0.0392809 0.782 -0.62309 0.0153242
0.583024 1.09419 0.489093 0.661126 -0.698388 -0.274166
0.0750683 -0.472373 -0.54773 0.161547 -0.4637 0.87114
0.0739945 -0.461597 -0.532072 0.0980898 -0.410326 0.906648
0.072963 -0.450359 -0.516756 0.0488397 -0.3682 0.928463
0.0836471 -0.422096 -0.488869 -0.0350449 -0.151837 0.987784
0.0847036 -0.436913 -0.501871 -0.0163613 -0.248732 0.968434
0.0708352 -0.423714 -0.488748 0.0347194 0.176097 -0.98376
0.071887 -0.437982 -0.502261 0.00317621 -0.283569 0.958946
0.0826136 -0.405888 -0.476869 0.0613881 0.0563962 -0.996519
0.0697486 -0.407456 -0.476909 0.0618233 0.0759306 -0.995195
0.08149 -0.388026 -0.466383 -0.0832461 0.0329688 0.995984
0.068579 -0.390827 -0.46581 -0.086662 0.0179382 0.996076
0.0664577 -0.348081 -0.448911 0.128975 -0.247268 -0.960325
0.0167705 -0.474766 -0.411226 -0.228808 -0.213485 0.949774
0.0196433 -0.487471 -0.42557 0.154506 0.353468 -0.922599
0.030027 -0.471246 -0.412773 -0.249973 -0.151684 0.956298
0.153518 -0.305988 -0.428885 -0.582545 0.627238 -0.516928
0.140677 -0.299984 -0.433238 -0.510415 0.376759 -0.773
0.145939 -0.302054 -0.423558 -0.547062 0.686299 -0.479288
-0.808859 0.193635 -0.0112332 -0.346071 -0.152945 0.925658
-0.807808 0.181863 -0.025223 -0.311247 -0.350027 0.88352
0.590543 1.12483 0.444766 0.593793 -0.794734 -0.125729
-0.068169 -0.429802 -0.540914 -0.303113 0.685403 -0.662077
-0.0694638 -0.425142 -0.521369 -0.316675 0.702912 -0.636893
-0.0803859 -0.242173 -0.420064 -0.0340165 -0.348935 0.936529
-0.8622 0.851041 0.685374 -0.629147 -0.545317 0.553898
-0.877933 0.834477 0.682684 0.713325 0.30521 -0.630883
-0.876023 0.824545 0.668196 0.790634 0.00457271 -0.612272
-0.132886 -0.0986807 0.318389 0.550983 0.427898 -0.716464
-0.320822 -0.668598 0.0219624 0.555781 -0.7948 -0.243722
-0.304797 -0.678817 0.0146259 -0.664271 0.733069 0.14613
-0.933383 -0.308097 0.1357 0.663396 -0.372348 0.649047
-0.931297 -0.317316 0.121161 0.654938 -0.448526 0.608178
-0.761706 -0.315839 0.242757 0.127501 -0.0372989 0.991137
-0.772106 -0.333011 0.232108 0.123322 0.0346141 0.991763
-0.758275 -0.322815 0.238531 0.127501 -0.0372989 0.991137
0.508253 0.897387 0.101775 0.814375 -0.26201 0.517826
0.0662319 -0.262528 -0.41152 -0.370492 0.808706 -0.456871
0.0676289 -0.369848 -0.456394 -0.0991259 0.130465 0.986485
0.0780761 -0.320742 -0.444429 0.139337 -0.335561 -0.931657
0.0652759 -0.323841 -0.443181 0.136143 -0.336351 -0.931844
0.495857 0.785211 -0.0613221 0.777487 -0.0995138 0.620976
0.490016 0.805259 -0.0536715 0.774813 -0.136935 0.617182
0.167544 -0.319038 -0.439969 -0.465403 0.424163 -0.776843
0.168541 -0.334102 -0.452108 0.225793 -0.0353911 0.973532
0.155853 -0.333134 -0.45351 0.123079 0.110844 0.986187
0.154813 -0.315339 -0.4435 0.290534 -0.216892 0.931959
-0.457252 -0.0903312 -0.175844 0.776568 0.0880312 0.623853
-0.459174 -0.0738106 -0.172883 0.742296 0.16334 0.649859
-0.793994 0.177163 -0.043775 -0.289901 -0.347824 0.891614
-0.214666 -0.364476 -0.480887 0.260059 -0.613265 0.745839
-0.132715 -0.108012 0.302372 -0.53265 -0.485027 0.693565
-0.121248 -0.102674 0.299479 -0.499656 -0.484441 0.718095
-0.611181 -0.46835 0.00211524 0.247674 0.467023 -0.84885
-0.412457 0.749052 0.841304 0.260153 0.818586 0.512091
-0.861748 0.854384 0.693618 -0.50147 -0.789587 0.353667
-0.389937 -0.382315 -0.414673 -0.566731 0.539355 0.622826
-0.411564 -0.369271 -0.402543 -0.555046 0.509675 0.657385
0.580137 1.05607 0.516363 0.677336 -0.605551 -0.41776
-0.577461 -0.213942 0.506995 -0.0278537 -0.616462 0.786891
-0.563128 -0.212412 0.506362 -0.135755 -0.594925 0.792234
-0.165164 0.243321 0.690977 0.0274527 0.00418056 0.999614
-0.148225 0.236964 0.694937 -0.283041 0.0926197 -0.954625
0.46909 0.671547 -0.157874 0.730154 0.127126 0.671352
0.462469 0.656922 -0.170078 0.723475 0.175359 0.667707
-0.498709 -0.148025 -0.258345 0.626265 -0.0182097 0.779397
-0.508122 -0.140832 -0.263375 -0.59237 -0.0210839 -0.80539
0.516142 0.814326 0.00698296 -0.787021 0.24873 -0.564563
0.65116 1.03507 0.176166 0.892328 0.216516 0.396069
0.0162511 -0.379351 -0.453913 -0.095075 0.0569557 0.993839
0.0022652 -0.360841 -0.444903 -0.109839 0.164925 0.980171
0.0487841 -0.258057 -0.422057 -0.342122 0.653614 -0.675086
0.0362084 -0.25571 -0.426077 -0.33023 0.534371 -0.778072
0.559246 0.825605 0.155083 -0.916911 0.230096 -0.326083
0.598973 1.05533 0.495578 0.729385 -0.573148 -0.373494
0.5422 0.67852 -0.0498223 -0.880861 -0.083151 -0.466014
0.537934 0.665343 -0.0626316 0.869254 0.0610486 0.490581
0.293934 0.913948 0.763328 -0.227363 0.891001 0.392968
0.00942102 -0.246631 -0.410276 0.14256 -0.864249 0.482441
-0.695752 0.887103 0.63547 -0.276252 -0.184669 0.943177
0.157142 -0.355527 -0.461167 -0.000753054 0.17956 0.983747
0.169964 -0.354996 -0.460801 0.0592112 0.132705 0.989385
-0.913345 0.137069 0.548019 0.674166 0.47933 0.561909
-0.909615 0.156203 0.545961 -0.726544 -0.471074 -0.500223
-0.781231 0.17915 -0.0442586 -0.355497 -0.370368 0.858166
-0.45193 -0.230586 0.389262 -0.0531948 -0.808032 0.586732
-0.457347 -0.231837 0.368688 -0.0802682 -0.757172 0.648265
-0.441188 -0.232798 0.369548 -0.0220753 -0.7548 0.655583
