ply
format ascii 1.0
element vertex 827
property float x
property float y
property float z
property float nx
property float ny
property float nz
end_header
0.275428 -0.170344 0.0943448 0.334944 0.750306 0.569959
0.289434 -0.167654 0.105011 0.324309 0.734715 0.595833
0.268834 -0.161606 0.101044 0.291666 0.768091 0.570058
0.145774 -0.148612 0.150506 -0.105021 0.962522 0.250043
0.160116 -0.144761 0.159753 0.105706 -0.961253 -0.254595
0.174519 -0.140903 0.169018 0.155881 -0.947107 -0.280517
0.426304 -0.677527 -0.168471 0.717062 -0.175164 0.674641
0.428697 -0.696528 -0.162251 0.62508 -0.068863 0.777517
0.439426 -0.681829 -0.154915 0.644456 -0.0770363 0.76075
0.251529 -0.0366048 0.307393 -0.465981 0.731573 0.497658
0.270179 -0.0252346 0.308097 -0.423978 0.768288 0.479559
0.263418 -1.0045 -0.343276 0.474006 0.44892 0.757489
0.268823 -1.01551 -0.347299 -0.410274 -0.498964 -0.763355
0.27711 -1.00172 -0.333012 0.432832 0.484044 0.760498
0.282657 -1.01257 -0.337258 -0.388118 -0.529878 -0.754052
0.126988 -0.0656469 0.372111 -0.278443 0.825732 0.490547
0.135382 -0.0523325 0.387105 -0.313716 0.794811 0.519479
0.144614 -0.0565014 0.374925 -0.345924 0.779273 0.522562
-0.130137 -0.134445 0.240275 0.125738 0.963903 0.234693
-0.13879 -0.130053 0.251584 -0.151951 -0.95443 -0.256855
-0.151473 -0.130812 0.239068 -0.2013 -0.955375 -0.216187
0.828454 0.239185 -0.544003 0.766291 0.189069 0.614045
0.526614 -0.760174 -0.12774 -0.093967 -0.484425 -0.869772
0.543324 -0.753086 -0.122578 0.020869 0.513464 0.857857
0.521474 -0.748552 -0.124269 -0.212774 -0.420122 -0.882171
0.342803 -0.971296 -0.28417 0.274579 0.529323 0.80276
0.328202 -0.975826 -0.292314 -0.332161 -0.507763 -0.794887
0.42774 -0.94932 -0.259886 0.232691 -0.693945 -0.681392
0.436539 -0.933651 -0.247648 -0.210063 0.662407 0.71909
-0.10278 -0.110674 0.31788 0.0646782 0.92753 0.368111
-0.111436 -0.105384 0.328885 0.0984917 0.917171 0.386131
-0.125052 -0.108126 0.318696 0.117065 0.919257 0.375849
0.43526 -0.792934 -0.171047 -0.40561 -0.223606 -0.886273
0.430976 -0.779453 -0.169724 -0.424079 -0.232047 -0.875392
0.585998 -0.526949 0.210618 0.497092 0.496767 0.711422
0.591697 -0.537185 0.2056 -0.377543 -0.634542 -0.674401
0.599851 -0.524143 0.221061 -0.422778 -0.547149 -0.722418
0.270952 -1.19347 -0.475664 -0.538454 0.793965 0.282289
0.262716 -1.19045 -0.462882 0.337868 -0.711526 -0.616097
0.335976 -0.693953 0.168405 0.448193 -0.130309 -0.884388
0.345404 -0.712922 0.155652 0.545383 -0.442337 -0.711965
0.346248 -0.69756 0.162002 0.525414 -0.226359 -0.820184
0.926281 -0.0810756 -0.378362 0.764306 -0.489942 0.419276
0.922029 -0.095517 -0.369043 0.770869 -0.51226 0.378618
0.917852 -0.0847895 -0.387444 0.74779 -0.495091 0.442375
0.526581 -0.60469 0.103494 0.0842733 -0.744371 -0.662427
0.935235 -0.108447 -0.237672 -0.962233 0.211832 -0.170983
0.932106 -0.114508 -0.25008 -0.949755 0.237505 -0.203857
0.934279 -0.0522576 -0.396679 0.792608 -0.389245 0.46932
0.930766 -0.0668349 -0.38777 0.762752 -0.492268 0.419382
0.926939 -0.0563306 -0.406319 0.770382 -0.421856 0.478068
0.984722 -0.252755 -0.280855 0.793637 0.111354 0.598114
0.989367 -0.270616 -0.276682 0.798554 0.0324288 0.601049
0.981263 -0.27434 -0.286004 0.769293 0.00696735 0.638858
0.977377 -0.256918 -0.290502 0.778604 0.0578117 0.624847
0.945936 0.155685 -0.409627 -0.901052 -0.00772465 -0.433643
0.413642 -0.694776 -0.377912 -0.159249 -0.66915 -0.725864
0.955945 -0.285443 -0.313173 0.712593 -0.106178 0.693497
0.959417 -0.302792 -0.308259 0.692833 -0.124037 0.71035
0.949742 -0.306019 -0.316601 0.687965 -0.140651 0.711984
0.930053 0.0779142 -0.449212 0.769886 0.199693 0.606134
0.926273 0.0722682 -0.460887 0.841797 0.147897 0.519139
0.918417 0.0912874 -0.46324 0.822152 0.282141 0.494432
0.930826 -0.444241 -0.243401 0.691911 -0.576374 0.434801
0.922094 -0.447695 -0.252283 0.647007 -0.59661 0.474803
0.925952 -0.433087 -0.261551 0.688913 -0.515349 0.509721
0.935441 -0.429659 -0.253088 0.716037 -0.513054 0.473357
-0.0196166 -0.147931 0.205954 -0.00775749 0.968986 0.246996
-0.00587915 -0.14516 0.216277 -0.0277925 0.962478 0.269934
-0.0292577 -0.144605 0.219317 -0.00868348 0.962828 0.269976
0.893471 0.119731 -0.490475 0.797085 -0.163071 0.581433
0.896716 0.102446 -0.48564 0.741731 0.165635 0.649923
0.887998 0.0988267 -0.494478 0.719831 0.126153 0.68259
0.93536 -0.124629 -0.230912 -0.939 -0.0305895 -0.342554
0.931753 -0.130329 -0.24276 -0.954232 -0.052245 -0.29447
0.00841422 -0.141521 0.225464 -0.0396327 0.960077 0.276912
-0.0018067 -0.138387 0.239703 -0.0301533 0.956167 0.291264
-0.0149734 -0.141112 0.228524 -0.0229637 0.960556 0.277138
0.0134967 0.0420221 -0.403827 -0.364496 -0.631477 0.684383
0.0258858 0.0395008 -0.407819 -0.36801 -0.61417 0.698114
0.01527 0.0275479 -0.392056 0.377672 0.573762 -0.726747
0.490755 -0.759813 -0.138294 0.31008 0.307929 0.899461
0.486254 -0.747068 -0.136368 0.352347 0.250789 0.901641
0.401912 -0.670885 -0.349375 -0.249649 0.839909 0.481901
0.428722 -0.661957 -0.344051 -0.0743269 0.802797 0.591602
0.403438 -0.676388 -0.361281 0.182269 -0.811044 -0.555864
0.457715 -0.0519208 0.205697 -0.158576 0.406361 0.899847
0.463204 -0.0625298 0.200708 0.220753 -0.422923 -0.878865
0.464098 -0.047379 0.206482 0.293279 -0.326131 -0.89868
0.0950894 -0.117148 0.278445 0.136405 -0.919893 -0.367683
0.0853132 -0.113619 0.291617 0.114557 -0.91446 -0.388124
-0.0562622 -0.149508 0.197633 0.0483453 0.97929 0.196608
-0.0663583 -0.14631 0.211936 0.0462779 0.973629 0.223396
-0.0790935 -0.147785 0.199499 -0.073761 -0.978641 -0.191887
0.894175 0.13537 -0.497621 0.767399 -0.218324 0.602855
0.885189 0.116084 -0.499695 0.773642 -0.170181 0.610342
0.00372417 -0.111142 0.317029 0.0624668 -0.920307 -0.386176
0.0184395 -0.106362 0.325031 0.0749989 -0.914399 -0.397807
0.00977843 -0.101534 0.336172 0.0614484 -0.903121 -0.424968
-0.0754457 -0.142488 0.224277 0.0433253 0.969352 0.241824
-0.0622501 -0.140145 0.235498 0.0139884 0.960738 0.277104
-0.0850579 -0.138826 0.23754 0.0491372 0.965013 0.257558
0.433247 -0.472181 0.0804229 -0.312072 0.700363 -0.641952
0.432325 -0.485728 0.095936 -0.203066 0.682712 -0.701904
0.446319 -0.470644 0.0862919 0.403861 -0.617085 0.675353
0.190057 -0.135225 0.176183 0.207371 -0.920948 -0.329928
0.206111 -0.12852 0.182207 -0.256385 0.885731 0.386971
0.222701 -0.120917 0.187148 -0.274308 0.865385 0.419361
0.374915 -0.00946602 0.246578 0.362798 -0.645801 -0.671802
0.394534 0.00266406 0.246565 0.425487 -0.566903 -0.705395
0.6052 -0.575001 0.167971 -0.207644 -0.786247 -0.581979
0.598011 -0.567088 0.175714 0.243948 0.756543 0.606739
0.584116 -0.570036 0.165416 -0.260876 -0.746258 -0.612407
0.256675 -0.845117 -0.554775 0.121539 0.476309 0.870837
0.231634 -0.85433 -0.55982 0.0798235 -0.64939 -0.756254
0.250268 -0.837565 -0.547104 -0.200163 0.670789 0.714127
0.230997 -0.0503338 0.309908 0.51678 -0.701285 -0.491057
0.220792 -0.0482347 0.324346 -0.510881 0.709055 0.486048
0.979019 -0.235154 -0.284205 0.779028 0.271408 0.565202
0.458205 -0.672715 -0.352838 0.285846 0.460647 0.840295
0.463598 -0.701133 -0.360952 0.54942 0.303852 0.778339
0.448161 -0.68641 -0.364252 0.321484 0.54704 0.772913
0.387088 -0.792569 -0.195083 -0.476148 -0.13159 -0.869464
0.171149 -1.22384 -0.47373 0.0362696 0.713989 0.699217
0.187533 -1.21635 -0.468616 -0.00203721 0.603383 0.797449
0.180844 -1.20653 -0.462811 0.0165906 0.493472 0.869603
0.164498 -1.21424 -0.467328 0.100888 0.469711 0.877036
-0.0466206 -0.152781 0.184263 0.0303426 0.983008 0.18104
-0.0695027 -0.151058 0.186151 -0.0648896 -0.98263 -0.173863
0.0317843 -0.123044 0.279429 -0.0564034 0.93601 0.347424
0.0465456 -0.118639 0.287575 0.0704477 -0.926067 -0.370725
0.907075 0.0108011 -0.47098 0.667458 -0.481597 0.567948
-0.0923057 -0.149168 0.188043 0.104791 0.983141 0.149843
0.382794 0.640638 -0.712645 0.351675 0.679471 -0.643928
0.386239 0.627182 -0.69878 -0.268359 -0.74223 0.614067
0.373018 0.629148 -0.695724 0.317362 0.703561 -0.635833
0.862297 -0.501922 -0.252191 -0.592388 0.74063 -0.317087
-0.0333789 -0.150523 0.19564 0.0109195 0.976932 0.213273
-0.0429896 -0.147513 0.209033 0.00841474 0.970821 0.239658
0.125953 -0.105789 0.292573 0.23361 -0.888446 -0.395083
0.142462 -0.0982015 0.297414 -0.258606 0.869545 0.420731
0.132653 -0.0948895 0.310636 0.261742 -0.865887 -0.4263
0.49419 -0.672323 -0.111591 0.563373 0.288164 0.77432
0.116178 -0.102411 0.30576 0.210218 -0.882975 -0.419717
0.6739 0.688016 -0.785562 0.487309 0.124371 0.864327
0.669373 0.668374 -0.776322 -0.402068 0.542545 -0.737554
0.636148 0.672717 -0.804813 0.310761 -0.144476 0.939444
0.153269 -0.841446 0.141742 -0.2306 0.962773 -0.14104
0.189738 -0.827698 0.135158 0.372768 -0.924224 0.082792
0.239187 -0.113138 0.191939 0.279863 -0.845107 -0.455489
0.256997 -0.104217 0.195171 0.291816 -0.799952 -0.524328
0.273782 -0.0947859 0.199869 0.322411 -0.749403 -0.578313
0.292251 -0.0849373 0.200419 -0.325536 0.71021 0.624202
0.526577 -0.504167 0.163365 0.673484 -0.0229242 0.738846
0.28836 -0.0146963 0.309616 -0.416639 0.758846 0.500565
-0.259776 -0.0349212 0.366185 0.44511 0.726168 0.523982
-0.247015 -0.0336639 0.378325 0.431638 0.7245 0.53739
-0.266504 -0.0261921 0.373347 0.457677 0.709176 0.536285
0.0494933 0.0336543 -0.41721 0.481495 0.567461 -0.667946
0.0513778 0.0191946 -0.405394 -0.490378 -0.576843 0.653285
0.0398958 0.0222991 -0.40028 0.434832 0.591402 -0.679091
0.16263 -0.0459901 0.376393 0.375149 -0.768576 -0.518222
-0.284829 -0.0364968 0.341318 0.484107 0.724508 0.490641
-0.272352 -0.0357806 0.353804 0.464495 0.726192 0.506843
-0.291496 -0.0276412 0.347954 0.490587 0.71172 0.502771
1.06843 -0.210495 -0.140954 0.621331 -0.0343068 0.782797
1.07015 -0.227072 -0.135371 0.670909 -0.19002 0.71678
1.06024 -0.230254 -0.14333 0.687007 -0.145428 0.711949
-0.234221 -0.032494 0.390493 0.403815 0.718945 0.565732
-0.240828 -0.0234426 0.396981 0.422358 0.704269 0.570629
-0.253555 -0.0246335 0.384806 0.445712 0.711455 0.543298
-0.0891535 -0.107608 0.327971 0.0371415 0.924767 0.378716
0.936139 0.207819 -0.42475 0.868283 0.28608 0.405269
-0.11646 -0.113434 0.307645 0.0917332 0.928433 0.359996
-0.0977958 -0.102541 0.339079 0.05349 0.914793 0.400366
-0.0745321 -0.103542 0.336167 0.000323965 0.919481 0.393135
-0.0836324 -0.0988854 0.348221 0.0243329 0.909924 0.414061
0.605993 -0.534141 0.215622 -0.345313 -0.603285 -0.718893
0.517979 -0.597193 0.11195 -0.0551061 0.656176 0.752593
0.875279 -0.56944 0.157646 0.287442 -0.773484 -0.564889
0.893421 -0.559979 0.160768 -0.343575 0.742485 0.575041
0.885483 -0.555375 0.170343 0.332838 -0.741272 -0.582868
0.629685 -0.670363 -0.0239689 0.153603 0.898209 0.411858
0.643639 -0.667623 -0.0134723 -0.13458 -0.913307 -0.384393
0.621471 -0.664378 -0.0140059 0.182576 0.902538 0.389989
0.194651 -1.01795 -0.395773 0.573416 0.166033 0.802264
0.729763 -0.627005 0.100478 0.0508095 0.898075 0.436897
0.738093 -0.63285 0.0905214 0.0278664 0.907284 0.419594
0.744236 -0.623422 0.109896 -0.00201298 0.883578 0.468279
0.180985 -1.02076 -0.406609 -0.602883 -0.142102 -0.785073
0.918156 -0.599732 0.076785 -0.408412 0.811459 0.418012
0.929284 -0.601766 0.0600464 -0.468593 0.798666 0.377563
0.937633 -0.588322 0.0778047 0.477798 -0.770916 -0.421187
-0.0758978 -0.676012 0.105881 0.324497 -0.279168 -0.903751
-0.0805051 -0.684943 0.104908 0.284334 -0.251458 -0.925161
-0.0750759 -0.663415 0.10954 0.30554 -0.326141 -0.894582
-0.172931 -0.652507 0.150567 -0.396233 0.815892 0.421093
-0.194955 -0.666684 0.145267 -0.550954 0.69622 0.460139
-0.192563 -0.665409 0.150313 -0.524882 0.812212 0.254579
0.195767 -0.162443 0.0808106 0.000316321 0.950807 0.309784
0.209661 -0.159262 0.0911785 0.00307609 0.942928 0.332983
0.186618 -0.158439 0.0930175 -0.0423478 0.95898 0.280291
-0.0109484 -0.13447 0.252026 -0.0278217 0.957081 0.288481
-0.0251614 -0.137805 0.242714 -0.00921704 0.955699 0.294201
0.0221421 -0.138233 0.235672 -0.0551971 0.954723 0.292331
0.0369505 -0.134201 0.243912 -0.0541272 0.950285 0.306642
0.027262 -0.130738 0.257166 -0.0562226 0.948725 0.311062
-0.0526537 -0.143776 0.222268 0.0153332 0.964701 0.262901
0.0130469 -0.134643 0.248034 -0.0567463 0.95127 0.303094
0.109976 -0.112283 0.286554 0.179243 -0.907382 -0.380171
0.100765 -0.108122 0.29872 0.14669 -0.904302 -0.4009
1.08984 -0.277794 -0.0774822 0.746436 -0.477902 0.46308
1.08553 -0.292522 -0.0680232 0.76856 -0.487659 0.414132
1.08154 -0.281607 -0.0866021 0.779806 -0.446381 0.438915
0.97204 -0.239166 -0.294141 0.751027 0.240902 0.614755
-0.116953 -0.132569 0.251624 0.098889 0.959398 0.264154
-0.126052 -0.128428 0.263885 0.113096 0.946634 0.301818
-0.0196666 -0.110573 0.320039 -0.0225681 0.921905 0.386758
-0.0105065 -0.115061 0.307984 -0.0403214 0.929183 0.367413
-0.00495919 -0.106069 0.328115 -0.0469794 0.909826 0.412322
0.428416 -0.32076 0.0313714 0.823659 0.200409 0.530492
0.434672 -0.340997 0.0354711 0.843157 0.0897924 0.530117
0.436131 -0.324854 0.041598 0.80508 0.184265 0.56382
0.0827746 -1.03955 -0.501531 0.732673 -0.375441 0.567656
0.0817258 -1.05777 -0.492864 0.728492 -0.306636 0.612596
0.0907141 -1.05416 -0.484228 0.713315 -0.310887 0.628118
0.309941 -0.0754096 0.203086 -0.298167 0.691182 0.658304
0.318164 -0.0432445 0.244157 -0.404555 0.749245 0.524373
0.337577 -0.0310797 0.243773 -0.402794 0.724188 0.55974
0.328153 -0.0649036 0.204834 0.253219 -0.63759 -0.727571
0.247539 -0.760901 0.191919 0.489489 -0.473436 -0.732297
0.268188 -0.744444 0.189148 0.480978 -0.388173 -0.786118
0.258334 -0.739372 0.196505 0.425935 -0.243351 -0.871412
0.847316 -0.634293 0.0612813 -0.226261 0.897327 0.378959
0.940772 -0.142793 -0.227081 0.866559 0.299382 0.399306
0.936645 -0.147785 -0.238575 0.840503 0.36938 0.396374
0.897935 -0.0818382 -0.424422 0.729075 -0.467535 0.499861
0.888673 -0.0852751 -0.433051 0.700644 -0.482617 0.525527
0.892134 -0.0706356 -0.441898 0.709814 -0.437298 0.552208
0.016721 -0.00328033 -0.371466 0.358258 0.489609 -0.794943
0.0291759 -0.00570053 -0.375331 0.363281 0.485923 -0.794925
0.0166124 -0.0192132 -0.362223 0.353428 0.458499 -0.815394
0.9007 -0.0670329 -0.432939 0.720791 -0.442343 0.53366
0.22727 0.599349 -0.644084 0.0465885 -0.994849 -0.0900323
0.242132 0.600378 -0.627591 -0.11805 -0.989175 0.0871596
0.2284 0.602161 -0.621182 -0.0893609 -0.995996 0.00259163
0.0613372 -0.114095 0.29569 0.0802705 -0.920877 -0.3815
0.0175359 -0.127026 0.270339 -0.0591812 0.943028 0.327408
0.203828 -1.20891 -0.463604 0.023246 -0.532333 -0.846216
0.197606 -1.19832 -0.458891 0.00505774 0.482947 0.875635
0.00331435 -0.131035 0.261258 -0.0493247 0.947013 0.317386
0.954127 -0.268927 -0.318777 0.729063 -0.0349299 0.683555
0.947275 -0.289107 -0.32201 0.709891 -0.13364 0.691516
0.562956 -0.56498 0.162863 -0.380754 -0.661655 -0.64594
0.792532 -0.623519 0.103615 0.0983753 -0.884434 -0.456178
0.808709 -0.616891 0.109734 0.143312 -0.873486 -0.465279
0.799317 -0.612687 0.121727 -0.124258 0.858418 0.497674
0.299795 -0.0534343 0.24227 0.350638 -0.786043 -0.509107
0.345951 -0.0556118 0.207796 0.130813 -0.639092 -0.757925
0.36212 -0.0489906 0.213957 -0.0510617 0.597119 0.800526
0.282078 -0.0628416 0.239434 -0.369865 0.773629 0.514489
0.750861 -0.671006 -0.00923967 -0.032717 0.962257 0.27017
0.740922 -0.667513 0.00386605 -0.0132003 0.956573 0.291192
0.556059 -0.25015 0.16115 0.510371 0.0374244 0.859139
0.553285 -0.234588 0.159926 0.512351 0.0382636 0.857923
0.538193 -0.238436 0.151205 0.498646 0.0461027 0.865579
0.362061 -0.814626 -0.213248 0.508925 0.155281 0.84669
0.358824 -0.807351 -0.214039 -0.541806 -0.0788116 -0.8368
0.347849 -0.81834 -0.222516 0.560992 0.143574 0.815275
0.223331 -0.969528 -0.360828 0.673071 0.183565 0.716435
0.227246 -0.983247 -0.361396 -0.643699 -0.21545 -0.734325
0.236216 -0.968526 -0.348433 0.645928 0.215567 0.73233
0.661755 -0.466479 0.265017 0.435313 -0.251855 0.864333
0.662536 -0.450256 0.256232 0.433094 -0.429309 0.792542
0.649012 -0.468485 0.258614 -0.459685 0.283729 -0.841539
-0.124377 0.0113609 0.494209 0.214541 0.66207 0.718078
-0.117425 0.0028385 0.487063 0.19554 0.677266 0.709278
-0.308967 -0.0363649 0.314495 0.54436 0.744492 0.386527
-0.297065 -0.0367107 0.328043 0.502384 0.735261 0.454975
-0.315884 -0.0281498 0.321987 0.542175 0.733501 0.409905
0.240363 -0.982114 -0.349318 0.60717 0.285804 0.741391
0.249393 -0.966671 -0.336952 0.612021 0.241242 0.753148
0.195274 -0.18062 0.0233185 -0.271854 -0.895418 -0.352594
0.186679 -0.17527 0.0343358 0.172782 0.93256 0.316984
0.934413 -0.0201434 -0.410485 -0.823748 0.229069 -0.51862
0.93543 -0.0366632 -0.404177 -0.829131 0.220036 -0.513932
0.928209 -0.0408284 -0.4139 0.800344 -0.240785 0.549065
0.253801 -0.979462 -0.338719 0.568488 0.312153 0.761172
0.267181 -0.977487 -0.327493 0.543038 0.342466 0.766698
0.262683 -0.964099 -0.326157 -0.58568 -0.286209 -0.758329
0.936345 -0.00486086 -0.418398 0.801627 -0.384477 0.457789
0.927053 -0.0242721 -0.420152 0.798691 -0.203104 0.566428
-0.0603558 -0.099802 0.345279 0.0015303 0.920457 0.390842
-0.0695055 -0.0952077 0.357314 0.0156233 0.910511 0.413189
-0.055348 -0.0915875 0.366442 0.0089695 0.906393 0.422341
-0.0461711 -0.0959335 0.35433 -0.00240461 0.91826 0.395971
-0.032031 -0.0922602 0.363448 -0.0470177 0.906477 0.419629
-0.0406996 -0.087101 0.374535 -0.0279432 0.888405 0.458209
0.987248 -0.382111 -0.227437 0.724866 -0.502565 0.471167
0.978665 -0.385768 -0.236393 0.712699 -0.499283 0.492724
0.982221 -0.370852 -0.245483 0.70366 -0.452648 0.547697
0.564599 0.971691 -0.222348 -0.00856948 0.906923 0.42121
0.543346 0.96457 -0.23366 -0.1489 0.945715 0.288881
0.915581 -0.213014 -0.330836 -0.503468 -0.47985 -0.718515
0.923938 -0.209435 -0.32166 -0.544832 -0.49605 -0.676086
0.930946 -0.235182 -0.332709 0.584745 0.353747 0.730026
0.508085 -0.276481 -0.381257 -0.22971 -0.681151 0.695173
0.521576 -0.278101 -0.383594 0.257379 0.60464 -0.753769
0.50927 -0.291548 -0.369961 0.418219 0.487175 -0.76665
0.994221 -0.352203 -0.245477 0.739388 -0.40144 0.54051
0.990946 -0.367286 -0.236576 0.731194 -0.459744 0.503975
0.984624 -0.355519 -0.253872 0.69991 -0.424059 0.574718
0.916884 -0.109362 -0.359296 0.758232 -0.583233 0.291417
0.909606 -0.113535 -0.368955 0.74203 -0.574241 0.345889
0.894388 -0.512419 -0.187056 0.587795 -0.476777 0.653591
0.892844 -0.527916 -0.178883 0.541019 -0.473423 0.695104
0.88307 -0.514884 -0.194176 0.543882 -0.55293 0.631237
0.889125 -0.542792 -0.169144 0.441591 -0.449325 0.776598
0.877384 -0.54526 -0.176947 0.474206 -0.512395 0.715947
0.881133 -0.530671 -0.186124 0.518558 -0.498463 0.694717
0.851958 0.234928 -0.508857 0.813817 0.0994172 0.572555
0.844852 0.230798 -0.518699 -0.812525 -0.116545 -0.571157
-0.0667914 -0.128912 0.270259 0.0155112 0.947513 0.319341
-0.0759241 -0.124475 0.282416 0.0268554 0.944858 0.326377
-0.0896228 -0.127409 0.272204 0.023946 0.945549 0.324597
0.848923 0.252197 -0.513962 0.800591 0.0682499 0.595312
-0.0389106 -0.140968 0.232553 -0.0120279 0.958603 0.284493
-0.0810031 -0.132107 0.260969 0.0184792 0.948907 0.315014
0.909178 0.0259802 -0.478993 -0.71842 0.337646 -0.608168
0.899676 0.0227531 -0.487516 -0.70747 0.360556 -0.607854
0.938902 -0.41469 -0.262079 0.696913 -0.505268 0.508937
0.930302 -0.418327 -0.270998 0.667871 -0.497514 0.553559
-0.101866 -0.145736 0.2014 -0.117103 -0.976379 -0.181578
0.94566 -0.272617 -0.327755 0.705416 -0.0499731 0.70703
0.970884 -0.568129 0.0657792 0.677033 -0.670253 -0.303953
0.951764 -0.577178 0.0805335 -0.554487 0.727807 0.403536
0.95037 -0.584437 0.0693183 -0.57288 0.733068 0.366633
0.0245145 -0.0968064 0.344214 0.0705248 -0.899559 -0.431067
-0.538636 0.343476 0.344545 0.849527 0.12299 0.513008
-0.532584 0.32468 0.348018 0.83656 0.216009 0.503496
-0.527007 0.329162 0.358784 0.814794 0.175239 0.552632
0.380528 0.926635 -0.234089 0.0330465 0.93675 0.348436
0.39873 0.930145 -0.222062 0.023091 0.93645 0.35004
0.39028 0.922528 -0.242536 0.0262084 0.94363 0.329963
0.379417 -0.0406664 0.218157 -0.105719 0.534865 0.838298
0.397299 -0.0312591 0.221192 -0.116582 0.554188 0.824187
0.355886 -0.0205562 0.245543 -0.32779 0.708236 0.625264
0.949966 -0.590282 0.0575281 0.581336 -0.733466 -0.352245
0.940554 -0.602278 0.0461071 -0.505899 0.784757 0.358081
0.95161 -0.594863 0.0457424 0.595715 -0.731018 -0.332769
0.315242 -0.499962 0.02122 0.396828 -0.861331 -0.317232
0.315294 -0.504551 0.0083375 0.405838 -0.815717 -0.41219
0.292367 -0.51021 0.0184687 -0.3936 0.835923 0.382507
1.04602 -0.441029 0.0249867 0.834173 -0.397386 0.382412
1.04231 -0.455936 0.0340705 0.840759 -0.449821 0.301306
1.03542 -0.460306 0.0242076 -0.838299 0.418341 -0.349637
0.0925494 -0.06379 0.390392 0.165126 -0.824185 -0.541712
-0.160488 -0.126105 0.251207 0.206874 0.939272 0.273809
0.0772613 -0.0699195 0.383628 -0.130992 0.834046 0.535918
0.0613238 -0.0761925 0.377567 0.092777 -0.860819 -0.500384
0.0158108 -0.0920209 0.35544 0.0712269 -0.896241 -0.437811
0.0310852 -0.0864928 0.362408 0.0941016 -0.875552 -0.473872
0.0464436 -0.0809107 0.369407 0.0815217 -0.878006 -0.471656
0.854821 0.178776 -0.537769 0.73119 0.265476 0.628398
0.847692 0.174664 -0.547636 0.694545 0.192979 0.693085
-0.120558 -0.138193 0.227007 -0.114873 -0.974542 -0.19254
-0.142826 -0.135416 0.227822 0.171388 0.967626 0.185274
-0.252168 -0.730083 0.127761 -0.625343 0.688883 0.366587
-0.244866 -0.727136 0.149446 -0.788628 0.280009 -0.547413
-0.240539 -0.710952 0.13892 -0.76938 0.637287 -0.0438059
-0.107407 -0.136711 0.238484 0.0902668 0.967618 0.235726
-0.0946713 -0.134902 0.250724 0.0536999 0.95778 0.282443
-0.103792 -0.130937 0.263027 0.0644885 0.949897 0.305839
0.236322 -1.0094 -0.364624 0.534644 0.358092 0.765458
0.241073 -1.02201 -0.366809 0.488496 0.393006 0.77905
0.249676 -1.00738 -0.353464 0.514286 0.399928 0.758661
0.254867 -1.01906 -0.35676 0.458978 0.4429 0.770181
0.545669 -0.688129 -0.0857455 -0.425174 -0.51969 -0.741046
0.559657 -0.685047 -0.0754233 -0.367563 -0.605784 -0.705637
0.553628 -0.675016 -0.0700495 -0.427457 -0.651094 -0.627182
0.264595 -0.0726186 0.236872 -0.415117 0.754112 0.508913
0.181705 -0.889749 -0.496653 0.773283 -0.620897 0.128527
0.171049 -0.904262 -0.490728 -0.791841 0.582943 -0.182113
0.176661 -0.899526 -0.480082 -0.804993 0.567718 -0.172285
0.691983 0.579561 -0.178488 0.854078 0.494768 0.160483
0.686625 0.598338 -0.181963 -0.985197 -0.135424 -0.105108
0.690179 0.587541 -0.161229 -0.940036 -0.339209 -0.0356406
0.208214 -0.788047 0.197448 -0.460864 0.574428 0.676489
0.216797 -0.776195 0.201597 -0.503849 0.460783 0.730627
0.199731 -0.782659 0.208501 -0.449888 0.489997 0.746662
0.244876 -0.0858539 0.238512 0.449774 -0.778642 -0.437516
0.987683 -0.324703 -0.269237 0.774518 -0.243784 0.583688
0.986877 -0.340431 -0.262026 0.730091 -0.355097 0.583843
0.97795 -0.343857 -0.270672 0.700616 -0.399375 0.591301
0.394845 -0.963642 -0.269739 -0.00697491 0.630657 0.77603
0.540963 -0.254888 0.152771 -0.513791 -0.0806413 -0.854117
0.523319 -0.243179 0.142491 0.523128 0.082045 0.848296
0.84028 -0.643959 0.0426782 0.194475 -0.913905 -0.356311
-0.303759 -0.0278951 0.334682 0.50636 0.72294 0.470061
-0.153101 0.00304399 0.477069 -0.275412 -0.663996 -0.695167
-0.146507 -0.00592819 0.470538 -0.260403 -0.687204 -0.678189
-0.138574 0.00738885 0.485383 0.228469 0.659163 0.716454
0.256394 -0.765878 0.181088 -0.505802 0.575434 0.642681
0.228535 -0.774156 0.194561 0.500272 -0.550831 -0.668067
0.993217 -0.215959 -0.243023 0.750325 0.513553 0.416264
0.986747 -0.223536 -0.262874 0.783732 0.409522 0.466965
0.982259 -0.211139 -0.256302 0.709053 0.566468 0.41995
0.982693 -0.396728 -0.217813 0.723738 -0.52798 0.444342
0.977995 -0.411257 -0.208086 0.704519 -0.570763 0.421761
0.974099 -0.40037 -0.226769 0.699789 -0.543459 0.463624
0.986618 -0.308311 -0.275522 0.792424 -0.168849 0.586135
0.994173 -0.304183 -0.266001 0.805834 -0.143603 0.574465
0.272092 -0.521089 0.0171037 0.419751 -0.763612 -0.490618
0.27052 -0.515599 0.0290679 0.375081 -0.84328 -0.384958
0.00429814 -0.00079988 -0.367533 0.412048 0.478867 -0.775179
0.404434 -0.433041 -0.0800627 -0.966254 -0.248831 0.0666037
0.397673 -0.412471 -0.0750379 -0.961105 -0.254728 -0.106733
0.399267 -0.419387 -0.0913447 -0.928845 -0.370281 0.0117389
0.0160809 0.0122379 -0.381667 0.365804 0.525203 -0.768342
0.0291595 0.0100036 -0.384855 0.352661 0.536111 -0.766951
-0.0259948 -0.0826434 0.382634 0.0613749 -0.864377 -0.499085
0.222617 -1.01221 -0.374917 0.539282 0.298123 0.78759
0.23164 -0.996716 -0.362621 0.585994 0.306501 0.750112
-0.0167839 -0.0870669 0.370547 0.0610148 -0.887938 -0.455898
-0.00208724 -0.0821525 0.378436 0.089985 -0.866311 -0.491334
-0.0107982 -0.077152 0.389573 -0.0822608 0.856591 0.509396
0.126674 -0.0472643 0.398178 0.298303 -0.789427 -0.536488
0.108958 -0.0562671 0.395232 0.240195 -0.806011 -0.540973
-0.0283277 -0.105736 0.331227 -0.0190713 0.919558 0.392491
-0.0136237 -0.101225 0.33932 -0.0530937 0.907372 0.416962
-0.0526045 -0.125713 0.279582 0.0172697 0.949693 0.312707
-0.0393939 -0.122908 0.290523 -0.00630103 0.941048 0.338214
-0.0622612 -0.121596 0.292628 0.0259942 0.942475 0.333265
-0.0338772 -0.114344 0.310914 -0.0136367 0.921719 0.387618
-0.0247083 -0.118773 0.29881 -0.0251115 0.928114 0.371447
-0.0480942 -0.118101 0.301821 -0.00794296 0.932666 0.360653
0.0337148 -0.10129 0.332145 0.0774816 -0.912933 -0.400687
0.0392321 -0.0921985 0.352272 0.0857807 -0.888369 -0.451046
0.0484766 -0.0966013 0.340202 0.091178 -0.902892 -0.420086
-0.112412 -0.125924 0.274176 0.0737797 0.941565 0.328652
-0.565142 0.642111 0.21777 -0.917021 0.254824 -0.306818
-0.560129 0.646923 0.229019 -0.913125 0.252274 -0.32025
-0.558331 0.662864 0.220615 -0.932131 0.207247 -0.296953
0.403482 -0.432887 -0.0708986 -0.969209 -0.235972 0.0703603
0.401447 -0.425761 -0.0556953 -0.991766 -0.127926 -0.0058596
0.264068 -1.16528 -0.443606 0.143082 -0.562521 -0.814308
0.281028 -1.15721 -0.439534 -0.257587 0.624739 0.737123
0.272943 -1.14867 -0.432177 0.102702 -0.564498 -0.81902
0.383468 -0.777927 -0.194813 -0.533168 -0.0604132 -0.843849
0.634497 -0.56704 0.185841 0.178217 0.765999 0.617644
0.6489 -0.563126 0.195047 -0.12564 -0.756775 -0.641488
0.641691 -0.555146 0.202691 0.153744 0.749635 0.643747
-0.0250152 -0.909098 0.240388 -0.205642 0.717752 0.665239
-0.0296924 -0.887733 0.249046 0.0840517 -0.206319 0.974868
-0.0354905 -0.908777 0.249156 -0.284158 0.449206 0.847035
0.208283 -0.179397 0.0359488 -0.269657 -0.861629 -0.429978
0.221695 -0.177572 0.0476073 0.285052 0.837177 0.466777
0.200086 -0.173535 0.0459865 0.1642 0.916387 0.365066
0.89455 -0.0556102 -0.450214 0.72378 -0.344537 0.59786
0.903135 -0.0519727 -0.441267 -0.737081 0.317191 -0.596743
0.0674392 -0.046406 0.421252 -0.121534 0.820339 0.558814
0.0761229 -0.0515913 0.410233 0.125795 -0.820992 -0.556909
0.00108818 -0.0965981 0.347356 0.0590845 -0.905458 -0.420303
-0.252577 -0.731316 0.140063 -0.897919 0.380622 -0.221061
-0.256624 -0.736866 0.128461 0.826567 -0.559566 0.0606096
0.516252 -0.521544 0.152845 -0.618526 -0.182794 -0.764207
0.226497 -0.095792 0.236642 0.388246 -0.826532 -0.407566
0.209412 -0.104287 0.232799 0.352369 -0.846215 -0.399696
0.290775 -1.14081 -0.428191 0.240527 -0.6149 -0.751029
0.0885188 -1.15863 -0.471948 -0.41811 -0.077269 -0.905104
0.103788 -1.15315 -0.464668 -0.38518 -0.105909 -0.916744
0.0853307 -1.14349 -0.473036 0.445727 0.0136653 0.895065
0.398493 -0.682858 0.130458 -0.548607 0.475994 0.687357
0.411839 -0.659288 0.133535 0.504343 -0.367107 -0.781582
0.100295 -1.13883 -0.465015 -0.446753 -0.0157642 -0.894518
0.191751 -0.113588 0.230044 0.309887 -0.87331 -0.375898
0.824332 -0.611214 0.116937 -0.1715 0.858552 0.483194
0.815454 -0.606083 0.127819 0.151329 -0.84918 -0.505957
0.290183 -0.127564 0.154339 0.0586208 0.772473 0.632337
0.297806 -0.134972 0.145813 -0.152598 -0.751746 -0.641554
0.305789 -0.121778 0.161473 -0.0632525 -0.691126 -0.719961
0.925437 0.0335813 -0.460644 0.798172 -0.199943 0.568283
0.921097 -0.613651 0.045228 -0.42652 0.81607 0.390013
0.538302 -0.461025 0.162913 0.652625 -0.408051 0.638417
0.528492 -0.482555 0.162586 0.693058 -0.208667 0.690021
0.53827 -0.479189 0.170994 0.696552 -0.202564 0.688319
0.952347 -0.0731538 -0.215338 0.920322 -0.387423 -0.0539507
0.960822 -0.0573783 -0.22106 -0.904463 0.416535 0.0918977
0.961511 -0.052064 -0.208998 -0.919817 0.36529 0.143179
0.694039 0.692708 -0.778138 -0.470001 -0.284967 -0.8354
0.68593 0.670826 -0.772446 -0.276762 0.535763 -0.797723
-0.0644513 -0.672282 0.103258 0.319528 -0.29443 -0.900674
-0.0642568 -0.679284 0.101212 -0.306543 0.243094 0.920292
0.510775 -0.550799 0.139491 -0.485077 -0.284108 -0.827033
0.524515 -0.548011 0.14994 0.495962 0.430963 0.753852
0.520082 -0.535248 0.151943 -0.592291 -0.262197 -0.761869
-0.590171 0.829648 0.399039 -0.487511 -0.322318 -0.811445
-0.59853 0.835157 0.396107 0.539367 0.23577 0.808391
-0.604431 0.826084 0.389129 0.541485 0.374751 0.752566
0.630682 -0.709082 -0.106568 0.361405 -0.831669 -0.421561
0.646134 -0.700876 -0.100984 0.240072 -0.9162 -0.320848
0.218319 -0.999353 -0.373348 0.594599 0.251294 0.763743
0.190976 -0.169198 0.0580864 0.0658429 0.950405 0.303964
0.177556 -0.171084 0.0464776 0.0868293 0.964043 0.251161
0.204672 -1.00136 -0.384767 0.591375 0.200721 0.781016
0.208789 -1.01499 -0.385542 0.550949 0.248455 0.796697
0.244875 -0.994853 -0.351203 0.566041 0.344363 0.749007
0.0136347 -0.0759253 0.384373 0.110237 -0.853448 -0.509387
0.0284732 -0.0710984 0.392398 0.0743876 -0.848777 -0.523491
0.0208474 -0.0645055 0.401484 0.0976356 -0.849856 -0.517892
0.593727 -0.727154 -0.111983 0.191932 -0.751098 -0.631675
0.612758 -0.719672 -0.107833 -0.305532 0.797582 0.520109
0.602769 -0.714018 -0.096293 0.199923 -0.769747 -0.606235
0.00499752 -0.0708995 0.395513 -0.0947831 0.844357 0.527331
0.0443736 -0.0650056 0.398582 0.0956389 -0.839658 -0.534629
0.0362181 -0.0589389 0.408516 -0.0961339 0.826222 0.555081
0.0602293 -0.058155 0.404316 0.125979 -0.818364 -0.560722
0.0515225 -0.0530065 0.415318 -0.123812 0.818925 0.560387
-0.0425121 -0.109505 0.322116 -0.0181022 0.924425 0.380934
-0.0572008 -0.113876 0.314019 -0.00258056 0.922285 0.386503
-0.0714069 -0.117252 0.304769 0.0275053 0.938241 0.344887
-0.0850689 -0.12012 0.294552 0.0361436 0.940458 0.337982
-0.0987562 -0.12319 0.28444 0.0425901 0.9412 0.335154
0.450038 -0.78827 -0.162923 0.3685 0.249137 0.895622
-0.551727 0.374117 0.324127 -0.887924 -0.0252654 -0.459296
-0.557402 0.369543 0.313542 -0.902653 -0.0531262 -0.427078
-0.548219 0.356164 0.329071 0.878672 0.0796526 0.470734
-0.553373 0.351732 0.318171 -0.900808 -0.123772 -0.416203
-0.548212 0.333455 0.32212 -0.891724 -0.201 -0.405497
-0.543728 0.338398 0.333504 0.873357 0.165132 0.458235
0.422411 0.928814 -0.282333 0.335321 -0.921329 0.196756
0.449198 0.942655 -0.292665 0.233777 -0.972281 -0.00415803
0.429978 0.938093 -0.304643 -0.220341 0.975344 -0.0124394
-0.505674 0.3652 0.395106 0.797085 0.0962188 0.596152
-0.500089 0.346976 0.398867 0.776996 0.129937 0.615949
-0.492946 0.351145 0.408646 0.765503 0.119565 0.632226
0.175214 -0.121354 0.225185 0.235696 -0.905225 -0.353574
0.354207 -0.101918 0.180024 0.0242875 0.514234 0.857306
0.360853 -0.11091 0.173514 0.0156423 0.536761 0.843589
0.370865 -0.0942538 0.185042 0.0643725 0.511405 0.856925
0.754897 -0.664399 0.0142514 -0.0293821 0.947965 0.317016
0.764846 -0.667995 0.00120015 -0.0486845 0.959988 0.275776
0.769418 -0.660634 0.0236394 -0.0472655 0.934304 0.353329
0.784537 -0.656162 0.0320332 0.0556314 -0.927413 -0.369879
0.528102 -0.657062 -0.0704893 0.531639 0.722392 0.442165
0.517418 -0.650141 -0.0740762 0.628628 0.665635 0.40219
0.515949 -0.657007 -0.0845224 0.581798 0.58139 0.568768
0.115693 -0.990073 -0.59667 -0.0669727 -0.00536081 0.99774
0.106633 -0.968635 -0.58741 -0.540978 0.434294 0.72023
0.123907 -0.969328 -0.595588 0.157782 -0.185567 -0.969881
0.834856 0.266994 -0.526753 -0.699344 -0.241219 -0.672853
0.84261 0.271271 -0.517461 0.709454 0.234328 0.664654
0.841762 0.248032 -0.523797 0.771236 0.0882642 0.6304
0.357848 -0.965994 -0.276846 0.205641 0.550842 0.808878
0.85329 0.21061 -0.516374 0.738843 0.361219 0.568886
0.523604 0.957799 -0.223816 0.369956 -0.92589 0.0765528
0.523042 0.958485 -0.245181 0.16307 -0.975219 -0.14952
0.859348 0.137493 -0.540384 0.698039 -0.117875 0.706291
0.86791 0.141092 -0.531403 0.753331 -0.0565142 0.655209
0.860007 0.121297 -0.534135 0.721372 -0.230441 0.653085
0.995177 -0.320624 -0.259683 0.785758 -0.207452 0.582708
0.995456 -0.336692 -0.253018 0.763269 -0.302832 0.570713
0.236594 -0.821798 -0.467775 0.739952 -0.670992 -0.0473438
0.225897 -0.836112 -0.463301 -0.794781 0.606869 -0.0056811
0.228479 -0.832153 -0.44882 0.799093 -0.600175 0.0352097
0.863809 0.841202 -0.206285 0.718309 -0.280618 -0.636621
0.866939 0.822475 -0.222361 0.777332 -0.266532 -0.569838
0.872462 0.84366 -0.217157 0.788444 -0.301564 -0.536111
0.663943 -0.478732 0.270053 0.288751 -0.0335918 0.956815
0.567213 -0.673002 -0.0589769 -0.344558 -0.74881 -0.566183
0.546999 -0.666051 -0.0633884 -0.448148 -0.743233 -0.496758
0.495447 -0.772369 -0.140749 -0.243585 -0.368806 -0.897022
0.637416 -0.501898 0.253578 0.332877 0.451299 0.827962
0.633059 -0.489118 0.255567 0.43157 0.113179 0.894951
0.0275796 -1.08611 -0.546646 -0.965113 0.261425 0.0145978
0.0264742 -1.09867 -0.538106 -0.971068 0.192886 -0.140791
0.0358768 -1.09481 -0.529207 0.741868 -0.280688 0.608971
0.368511 -0.803417 -0.206625 -0.515869 -0.102038 -0.850569
0.219875 -0.0304083 0.351361 -0.500004 0.705309 0.502528
0.159722 -0.126929 0.218062 0.191457 -0.921983 -0.336588
0.144799 -0.131814 0.209905 0.158102 -0.93973 -0.303168
0.0297442 -0.0214127 -0.36545 0.357355 0.46379 -0.810676
0.28753 -0.905598 -0.28817 0.619782 0.193095 0.760647
0.278614 -0.883602 -0.291227 -0.693129 -0.105132 -0.713106
0.27792 -0.908507 -0.296936 -0.650865 -0.170216 -0.739865
0.387632 -0.0870527 0.190654 0.0796689 0.49434 0.86561
0.381521 -0.0771941 0.196046 0.0715083 0.482845 0.872781
0.201053 -0.154826 0.102433 -0.0419292 0.950562 0.307692
0.214928 -0.151502 0.112736 0.0561624 -0.938264 -0.34133
0.20583 -0.147694 0.124987 0.0993479 -0.949508 -0.297598
0.872373 0.0443423 -0.527068 0.785573 -0.076172 0.614063
0.86871 0.0617476 -0.531862 0.77784 0.118024 0.617281
0.526462 -0.257854 0.142883 0.542399 0.122471 0.831146
0.484604 -0.266365 0.110735 0.638051 0.174437 0.749976
0.488298 -0.280099 0.110016 0.628863 0.184685 0.755264
0.498254 -0.264425 0.12225 0.59637 0.16962 0.784584
-0.132019 -0.00168684 0.478928 -0.203719 -0.680713 -0.703653
0.851982 0.101569 -0.536721 0.711364 0.0995106 0.695743
0.860565 0.0816382 -0.534464 0.760779 0.230469 0.606711
0.566221 0.554355 -0.48227 -0.997165 -0.00661811 -0.0749542
0.568026 0.536654 -0.476633 0.83765 0.359695 0.41105
0.563412 0.548363 -0.494284 -0.980274 0.0370713 -0.194133
0.399918 -0.106535 0.179127 0.0228263 0.567529 0.823037
0.406556 -0.115456 0.172559 -0.00957025 0.584399 0.81141
0.416681 -0.0989937 0.18429 -0.0460216 0.560951 0.826569
0.45147 -0.744696 -0.149317 -0.4167 -0.177708 -0.891505
0.466717 -0.739096 -0.142174 0.397975 0.204266 0.894366
0.0276067 0.0249649 -0.396153 -0.366858 -0.592554 0.717143
0.617094 -0.7056 -0.0903135 0.247287 -0.806826 -0.536546
0.190837 -1.00346 -0.395923 0.603802 0.158316 0.781255
0.675771 -0.693103 -0.0832189 0.0853792 -0.974475 -0.207626
0.689706 -0.689811 -0.0727956 0.0712455 -0.975875 -0.20638
-0.138687 -0.110901 0.308468 0.129901 0.920723 0.36796
0.568918 -0.727328 -0.105786 0.0198222 -0.608536 -0.793279
0.576753 -0.736892 -0.113923 0.192296 -0.657489 -0.728513
0.585299 -0.721942 -0.101048 0.0983169 -0.709251 -0.698067
-0.12967 -0.115852 0.296501 0.116674 0.926885 0.356752
-0.151843 -0.112847 0.297181 0.171026 0.922368 0.346391
-0.143276 -0.118313 0.286184 -0.147476 -0.931413 -0.332748
-0.164559 -0.114232 0.284877 0.216351 0.922892 0.318531
0.408771 0.931407 -0.316348 -0.246831 0.969014 0.00931828
0.425546 0.934698 -0.325494 -0.109366 0.957921 0.26538
-0.156371 -0.119694 0.274689 0.203461 0.928349 0.311081
0.88911 -0.110511 -0.405717 0.686401 -0.573692 0.446913
0.883235 -0.12421 -0.395419 0.649702 -0.629013 0.426885
0.880487 -0.113972 -0.414542 0.637755 -0.60206 0.480409
0.506345 -0.537996 0.141371 -0.519491 -0.222025 -0.825126
0.492004 -0.541772 0.13187 0.341163 0.182253 0.922167
0.313946 -0.979757 -0.301183 -0.360441 -0.484848 -0.796871
0.299729 -0.98357 -0.310215 -0.408236 -0.46134 -0.787724
0.495993 -0.555355 0.130796 -0.346993 -0.179264 -0.920576
0.506145 -0.754097 -0.131426 -0.282037 -0.341303 -0.896642
0.551386 -0.544104 0.172498 0.52574 0.509063 0.681508
0.564569 -0.542342 0.184203 -0.480611 -0.562393 -0.672849
0.559695 -0.530436 0.187266 0.586346 0.386194 0.712076
0.559621 -0.745197 -0.117881 -0.0884402 0.574966 0.813384
0.736094 0.337239 -0.565407 0.486808 0.421095 0.765309
0.745832 0.337873 -0.558976 0.519691 0.422577 0.742529
0.736278 0.322883 -0.573339 0.504787 0.342316 0.79247
0.537817 -0.546162 0.161399 0.521244 0.47087 0.711748
0.533325 -0.533409 0.163518 0.596212 0.339377 0.727568
-0.562481 0.598306 0.251806 -0.928255 0.101035 -0.357958
-0.567728 0.593733 0.241019 -0.940051 0.0463985 -0.337863
-0.561012 0.581411 0.258023 -0.933334 0.0708067 -0.351958
0.155941 -0.579659 0.038454 -0.432726 0.578764 0.691217
0.138563 -0.591836 0.0390341 0.424123 -0.523906 -0.738676
0.150375 -0.572638 0.047885 -0.438513 0.657989 0.612174
0.283481 -1.13064 -0.421503 0.0686214 -0.589554 -0.804809
0.277087 -1.12344 -0.414285 0.0244462 0.576793 0.816524
0.100756 -0.145154 0.184419 0.115001 -0.957441 -0.264731
0.11566 -0.140756 0.192599 -0.123225 0.956042 0.266081
0.129943 -0.136593 0.20177 0.122687 -0.953611 -0.274907
0.655476 -0.68642 -0.0559518 -0.00286275 0.941151 0.337973
0.820312 0.771993 -0.2225 0.353515 -0.703168 -0.616913
0.826459 0.766699 -0.23186 0.385697 -0.734535 -0.558297
0.0896209 -0.63085 0.0427098 0.394418 -0.326866 -0.858832
0.0755483 -0.642529 0.045186 -0.391699 0.312301 0.865471
0.0833477 -0.62187 0.0512748 0.432373 -0.445711 -0.783834
-0.27269 -0.815278 0.107906 0.302725 0.0317855 -0.952548
-0.27071 -0.83208 0.108142 -0.291573 -0.0657619 0.954285
-0.284494 -0.829581 0.113955 0.744764 -0.0491343 -0.665517
0.899109 -0.609647 0.0744873 -0.376711 0.826875 0.417572
0.909588 -0.61184 0.060276 -0.397268 0.828172 0.39536
0.898658 -0.497571 -0.196245 0.638385 -0.594509 0.488901
0.888056 -0.500638 -0.204062 0.606685 -0.674055 0.421407
0.372607 -0.961063 -0.269149 0.15113 0.556859 0.816743
0.285801 -0.986624 -0.320086 0.447308 0.434158 0.781935
1.01424 -0.252094 -0.235339 -0.846079 -0.195456 -0.49593
1.00843 -0.256699 -0.245978 0.841173 0.163555 0.515439
1.00166 -0.238475 -0.248816 0.819244 0.319098 0.476462
0.791619 -0.587497 -0.19652 0.429131 -0.61771 0.659
0.778392 -0.589824 -0.202913 0.415346 -0.665014 0.62068
0.788414 -0.57726 -0.215912 -0.47886 0.777074 -0.408473
0.80957 0.256289 -0.554187 0.57573 0.3417 0.742816
0.81262 0.231456 -0.562819 0.636369 0.231864 0.735713
0.799277 -0.57427 -0.208188 0.492779 -0.732839 0.469165
0.839358 -0.497776 -0.287662 -0.486893 0.649032 -0.584545
0.832176 -0.511338 -0.276409 -0.433813 0.768244 -0.470752
0.8273 -0.500209 -0.294495 -0.364235 0.676218 -0.640361
-0.177232 -0.115226 0.272439 0.22648 0.925192 0.304511
-0.422708 0.183721 -0.123005 0.609692 0.663843 -0.433115
-0.428885 0.192191 -0.137293 0.667965 0.740933 -0.0695768
-0.419978 0.184894 -0.144619 0.620122 0.784386 -0.0136465
0.980259 0.215526 -0.325164 -0.927833 -0.111685 -0.355881
0.985666 0.205962 -0.311439 -0.96493 -0.0550136 -0.256678
0.983324 0.198248 -0.319926 -0.953889 -0.0238063 -0.299215
-0.169057 -0.121001 0.262312 0.216267 0.932752 0.288448
0.552993 -0.735973 -0.11169 0.0876203 0.489729 0.867461
0.798148 -0.564315 -0.228521 -0.540472 0.731186 -0.416241
0.465217 -0.782842 -0.1555 0.349555 0.291098 0.890546
0.480138 -0.777913 -0.147871 -0.304349 -0.333126 -0.892411
0.613868 -0.521186 0.231246 -0.348963 -0.593529 -0.725223
0.620298 -0.530504 0.22504 -0.28961 -0.631367 -0.719376
0.628439 -0.517265 0.240256 0.274637 0.607442 0.745378
0.695907 -0.50582 0.265136 0.0544876 0.657318 0.751641
0.158881 -1.20309 -0.463428 0.111291 0.424859 0.898393
0.175197 -1.19565 -0.458671 0.0721703 0.403766 0.912011
0.15371 -1.19135 -0.460241 0.148657 0.336742 0.929788
0.155846 -0.0764342 0.333529 -0.298494 0.844493 0.444671
0.172879 -0.0680263 0.337364 -0.365051 0.792899 0.487902
0.163613 -0.0637901 0.349471 -0.349958 0.784049 0.512636
0.146172 -0.0735304 0.346931 0.293193 -0.840097 -0.456372
0.0858593 -0.149359 0.176134 0.104992 -0.96163 -0.253465
-0.392589 0.334726 0.51079 0.667347 0.14668 0.730159
-0.384899 0.322964 0.514716 -0.660094 -0.187692 -0.727357
-0.383674 0.338634 0.519338 -0.670041 -0.151647 -0.72667
0.426356 -0.766784 -0.167557 -0.458351 -0.227906 -0.859053
-0.0007321 -0.583669 0.137722 0.353194 -0.793637 -0.495373
0.00318289 -0.589676 0.126878 -0.370063 0.745982 0.553682
-0.0211217 -0.593999 0.135676 0.336426 -0.711496 -0.616921
0.1816 -0.182236 0.0124625 -0.212644 -0.946455 -0.242912
0.637787 0.960891 -0.23279 0.089062 0.898583 0.429671
0.647338 0.956634 -0.241277 -0.0798534 -0.892577 -0.443767
0.628054 0.951474 -0.252844 0.0875337 0.888001 0.451433
0.150384 -1.13565 -0.444349 0.279263 0.209299 0.937127
0.146354 -1.12134 -0.443834 -0.334341 -0.18517 -0.924082
0.130855 -1.12774 -0.450476 -0.399622 -0.0903667 -0.912215
0.181865 -1.12264 -0.432117 0.257095 0.295409 0.920128
0.197846 -1.11587 -0.426784 -0.219857 -0.338722 -0.914839
0.177299 -1.10989 -0.430386 0.306288 0.27281 0.91201
-0.433984 0.755117 0.377718 0.632153 -0.365196 0.683385
-0.428347 0.776451 0.371143 -0.525385 0.291531 -0.799363
-0.443044 0.752717 0.36978 0.638774 -0.30929 0.704491
0.211147 -1.22872 -0.499823 -0.250674 0.966792 -0.0497618
0.220646 -1.2187 -0.486232 0.332264 -0.927992 -0.168614
0.205072 -1.22799 -0.494263 -0.250674 0.966792 -0.0497618
0.85126 -0.495278 -0.280656 0.557801 -0.629418 0.541009
0.843892 -0.483132 -0.297231 0.514338 -0.492013 0.70241
0.302568 -1.01932 -0.332794 -0.295808 -0.5949 -0.74739
0.308623 -1.02923 -0.33822 -0.243194 -0.613688 -0.751162
0.317139 -1.01487 -0.324523 -0.252257 -0.586795 -0.76944
0.537495 -0.74195 -0.118346 0.136008 0.469299 0.872502
0.242974 -0.814358 -0.438005 0.775878 -0.630836 0.0076996
0.260131 -0.792662 -0.385169 0.849704 -0.512607 0.123441
0.252959 -0.808728 -0.372767 -0.855323 0.469651 -0.218746
0.264469 -0.787528 -0.373589 0.845872 -0.519187 0.122255
0.265139 -0.79525 -0.471915 -0.648095 0.743876 0.163162
0.26276 -0.799385 -0.486318 -0.604504 0.7814 0.154886
0.0351215 -0.0407901 0.435167 -0.114046 0.81605 0.566618
0.868296 0.124935 -0.524848 0.754203 -0.241163 0.610752
0.0667922 -0.694645 0.0418939 0.390958 -0.00947391 -0.92036
0.0612947 -0.714519 0.0445166 0.358775 0.0404638 -0.932547
0.0553484 -0.691513 0.0469518 0.376995 -0.0199265 -0.926001
0.815757 0.75455 -0.41643 -0.473204 0.763652 -0.43922
0.803946 0.743547 -0.402855 -0.314426 0.900759 -0.299615
0.804391 0.752409 -0.42401 -0.410855 0.810337 -0.417795
0.905817 -0.483797 -0.207741 0.653585 -0.684149 0.323676
0.897409 -0.487584 -0.216824 0.644164 -0.703942 0.299198
0.810001 -0.571058 -0.200201 -0.496833 0.674591 -0.545971
0.940295 -0.232133 -0.324045 -0.614075 -0.377798 -0.692951
0.949183 -0.251107 -0.32269 0.689567 0.166596 0.7048
0.940713 -0.254788 -0.331652 0.660705 0.144818 0.736544
0.902416 -0.0356172 -0.447608 0.768099 -0.176832 0.615431
0.426258 -0.138751 -0.522499 -0.167124 -0.580897 0.796636
0.427973 -0.153527 -0.510621 -0.10655 -0.719432 0.686342
0.41449 -0.152083 -0.508349 -0.204892 -0.687988 0.696198
0.89419 -0.165197 -0.318389 0.766149 -0.00578639 0.642637
0.887225 -0.169248 -0.32849 0.825742 -0.00604474 0.564015
-0.606762 0.436174 -0.00281163 0.929254 0.186607 -0.318849
-0.611845 0.455609 0.0122099 -0.976546 -0.052718 0.208756
-0.607817 0.446715 -0.00494193 -0.957923 -0.0994538 0.269245
-0.56489 0.576433 0.246387 -0.943049 0.0637777 -0.326482
-0.564374 0.560028 0.253598 -0.928419 0.233253 -0.289191
-0.560192 0.564798 0.264792 -0.933335 0.184394 -0.308033
-0.559822 0.386493 0.30769 -0.911103 -0.0162572 -0.411858
-0.554554 0.391533 0.318734 -0.901593 -0.0329339 -0.43133
1.00618 -0.232805 -0.237167 -0.809078 -0.349817 -0.472251
0.598621 0.671719 -0.371216 0.587758 -0.436511 0.681174
0.610748 0.673603 -0.364146 -0.541254 0.46183 -0.702679
0.59737 0.655625 -0.363376 0.607771 -0.37107 0.702084
0.279687 -1.17888 -0.461941 -0.414705 0.679272 0.605483
0.079657 -0.995287 -0.581885 0.590679 -0.354 -0.725108
0.0664627 -1.00874 -0.578686 0.81014 -0.486453 -0.327163
0.0663671 -1.00403 -0.566313 -0.832129 0.537452 0.136772
0.288735 -1.18171 -0.475654 0.64199 -0.75091 -0.154863
0.822702 -0.594303 0.144883 0.172 -0.80937 -0.561547
0.840215 -0.5865 0.149335 -0.214907 0.770607 0.599984
0.831051 -0.580668 0.159737 0.209482 -0.780154 -0.589472
0.244065 -1.09847 -0.406329 0.246079 0.452547 0.857115
0.259371 -1.09311 -0.398781 0.230912 0.501602 0.833712
0.238431 -1.08777 -0.401849 0.265677 0.460351 0.847049
0.275767 -0.150572 0.119179 0.209218 0.773093 0.598795
0.261256 -0.154225 0.109582 0.204493 0.81461 0.542765
1.01916 -0.269976 -0.231379 0.860304 0.0700238 0.504949
1.01309 -0.274622 -0.241844 0.852088 0.022761 0.522904
0.271895 -0.990073 -0.329681 0.49283 0.402761 0.771299
0.676335 0.74363 -0.442689 -0.150879 0.966898 -0.205775
0.662729 0.742427 -0.449 -0.265652 0.962807 0.0493184
0.682756 0.749709 -0.46703 -0.420881 0.903248 0.0836733
0.194437 -1.22317 -0.475553 0.146759 -0.823339 -0.548246
0.211184 -1.21587 -0.470899 0.190463 -0.775147 -0.602387
0.564788 0.599063 -0.703362 -0.0216604 -0.985694 0.16715
0.532328 0.595394 -0.678805 -0.0592682 0.974482 -0.216498
0.541979 0.601889 -0.70835 -0.0485989 -0.965088 0.257378
0.580728 -0.670729 -0.047676 0.282598 0.807001 0.518543
0.46338 -0.57573 0.12799 -0.157626 -0.015335 0.98738
0.46937 -0.598656 0.125606 0.286706 -0.187127 -0.939565
0.483524 -0.576666 0.125602 -0.045154 0.184988 0.981703
1.10181 -0.259398 -0.077325 0.766392 -0.439659 0.468341
1.09829 -0.274014 -0.0684084 0.75529 -0.472564 0.454115
1.09338 -0.263136 -0.0864274 0.753066 -0.439 0.490073
0.807847 -0.560975 -0.220178 -0.575594 0.705978 -0.412657
0.511207 -0.765983 -0.134451 -0.18043 -0.423019 -0.887975
0.670986 -0.66321 0.008662 0.119158 0.919214 0.375296
0.662206 -0.657602 0.0194504 0.128074 0.913737 0.385593
0.64879 -0.659752 0.00800563 -0.143222 -0.918872 -0.367642
0.626538 -0.656802 0.00756064 -0.162782 -0.913227 -0.373522
0.640073 -0.65395 0.0187308 0.157287 0.913519 0.375158
0.617996 -0.650142 0.0179851 0.173983 0.907132 0.383198
0.122862 -0.0914897 0.323807 0.246123 -0.872495 -0.42211
0.139368 -0.0839482 0.328669 0.261898 -0.865911 -0.426155
0.129553 -0.0806823 0.341882 0.258947 -0.859079 -0.441509
0.113771 -0.0878987 0.336201 -0.224465 0.875423 0.428078
1.02191 -0.286978 -0.226147 -0.857727 0.0305226 -0.513199
1.01572 -0.291567 -0.23651 0.847219 -0.0566423 0.528216
0.0577438 -0.155993 0.156563 0.0579901 -0.978521 -0.197823
0.57052 -0.591568 0.129696 -0.202379 -0.805726 -0.55664
0.584729 -0.588164 0.139357 -0.190148 -0.822418 -0.536164
0.563264 -0.584006 0.137591 -0.246724 -0.76885 -0.589913
1.02425 -0.303922 -0.220676 -0.862729 0.117532 -0.491819
1.01723 -0.308152 -0.230593 -0.848464 0.126577 -0.513894
0.211109 0.511972 -0.532179 0.524796 0.0907398 -0.846378
0.220767 0.507588 -0.53962 0.605443 0.0898453 -0.790801
0.206361 0.492852 -0.528933 0.451958 -0.0401057 -0.891137
0.0204768 -0.158812 0.149282 -0.0218687 0.988076 0.152403
0.0305877 -0.1605 0.134701 0.0226364 -0.992018 -0.124045
-0.275412 0.162546 -0.473852 0.758551 0.504262 -0.412698
