ply
format ascii 1.0
element vertex 825
property float x
property float y
property float z
property float nx
property float ny
property float nz
end_header
-1.10072 0.0671275 0.310742 0.75529 -0.472564 0.454115
-1.09581 0.0881712 0.310331 0.753066 -0.439 0.490073
-0.810279 0.0550801 0.635135 -0.575594 0.705978 -0.412657
-0.513638 -0.121664 0.769809 -0.18043 -0.423019 -0.887975
-0.673418 -0.194213 0.609251 0.119158 0.919214 0.375296
-0.664638 -0.200752 0.599 0.128074 0.913737 0.385593
-0.651221 -0.191916 0.606584 -0.143222 -0.918872 -0.367642
-0.628969 -0.190056 0.604252 -0.162782 -0.913227 -0.373522
-0.642505 -0.198303 0.596197 0.157287 0.913519 0.375158
-0.620428 -0.195753 0.593272 0.173983 0.907132 0.383198
-0.125294 -0.181268 -0.0434314 0.246123 -0.872495 -0.42211
-0.1418 -0.181709 -0.0523937 0.261898 -0.865911 -0.426155
-0.131985 -0.191518 -0.0618285 0.258947 -0.859079 -0.441509
-0.116202 -0.190206 -0.0527383 -0.224465 0.875423 0.428078
-1.02434 0.197247 0.400838 -0.857727 0.0305226 -0.513199
-1.01815 0.203927 0.409994 0.847219 -0.0566423 0.528216
-0.0601756 -0.0686871 0.0960503 0.0579901 -0.978521 -0.197823
-0.572951 -0.263208 0.486691 -0.202379 -0.805726 -0.55664
-0.587161 -0.269872 0.478914 -0.190148 -0.822418 -0.536164
-0.565696 -0.266264 0.476195 -0.246724 -0.76885 -0.589913
-1.02668 0.184037 0.412776 -0.862729 0.117532 -0.491819
-1.01966 0.190511 0.421398 -0.848464 0.126577 -0.513894
-0.21354 0.861746 -0.138037 0.524796 0.0907398 -0.846378
-0.223199 0.865998 -0.130519 0.605443 0.0898453 -0.790801
-0.208793 0.849375 -0.123101 0.451958 -0.0401057 -0.891137
-0.0229086 -0.0637914 0.102132 -0.0218687 0.988076 0.152403
-0.0330195 -0.0520086 0.110885 0.0226364 -0.992018 -0.124045
0.27298 0.636522 0.135403 0.758551 0.504262 -0.412698
0.281085 0.633373 0.125897 0.745285 0.513234 -0.425607
0.287364 0.640958 0.118971 0.681943 0.482344 -0.549816
-0.216618 -0.0246055 1.07881 0.64744 0.167356 0.743514
-0.431529 -0.0493872 0.326204 0.85737 0.100834 0.504726
-0.425984 -0.0357415 0.311528 0.833232 0.20588 0.513165
-0.41988 -0.0285917 0.320079 0.810477 0.22076 0.542579
-0.379517 -0.0625427 0.0396996 0.0590996 0.535585 0.842411
-0.386052 -0.0615589 0.0507043 0.0482598 0.565442 0.823375
-0.395673 -0.0645701 0.0308564 0.056801 0.54007 0.839701
-0.580475 -0.29002 0.365849 0.677301 0.151002 0.720043
-0.583977 -0.296425 0.378097 -0.614844 -0.267594 -0.741863
-0.904747 0.326701 0.357044 0.617792 0.413086 0.669099
-0.89745 0.333009 0.365529 -0.604519 -0.416436 -0.679071
0.503977 -0.0311444 -0.405057 0.779998 0.278511 0.560388
0.505613 -0.0290585 -0.385801 0.809753 0.299003 0.504874
0.498391 -0.0377898 -0.40442 0.775169 0.285327 0.56365
-0.897041 0.4566 0.330633 0.715054 -0.513282 0.474595
-0.887564 0.462258 0.337712 0.667067 -0.550116 0.502388
-0.0452886 0.420006 0.261791 -0.281797 -0.669478 0.687306
-0.0578279 0.422066 0.265464 -0.266685 -0.698748 0.6638
-0.0489102 0.401112 0.26618 -0.256589 -0.788846 0.558466
-0.553566 -0.0406849 0.875969 -0.880102 0.368237 -0.299703
-0.556317 -0.0534043 0.871867 0.871952 -0.460307 0.166785
-0.549721 -0.0449973 0.883392 0.865782 -0.454812 0.208729
0.399687 0.765127 -0.80311 -0.438062 0.673364 0.595553
0.413232 0.759688 -0.802449 0.471719 -0.598638 -0.64739
0.414759 0.7569 -0.810707 0.429303 -0.683079 -0.590848
-0.670556 1.11085 -0.139146 -0.254926 0.751665 -0.608286
-0.683696 1.11965 -0.148741 0.48971 -0.730368 0.47618
-0.682639 1.10558 -0.143237 -0.499206 0.752636 -0.42934
-0.316594 -0.106642 0.514614 0.379481 -0.32018 -0.868032
-0.308242 -0.10887 0.503868 -0.402923 0.493687 0.770666
-0.326048 -0.102838 0.493499 0.41424 -0.573392 -0.706843
0.480296 0.3429 -0.110422 0.724992 0.523899 -0.447121
0.471127 0.345817 -0.101716 0.709357 0.550974 -0.439591
0.482605 0.336294 -0.111505 0.768071 0.458665 -0.446871
-0.54565 1.16066 -0.134 -0.286441 -0.575329 0.766125
-0.528992 1.15682 -0.138808 -0.267653 -0.582808 0.767266
-0.529466 1.17701 -0.146317 -0.109385 -0.538218 0.835677
0.511436 0.239508 -0.715564 -0.845049 0.204275 -0.494129
0.507081 0.231152 -0.718185 -0.844043 0.204601 -0.495712
0.499998 0.234947 -0.735485 0.797539 0.00280722 0.60326
-0.0129825 -0.25753 -0.1444 -0.112536 0.818354 0.56359
-0.0217035 -0.250586 -0.134382 -0.113037 0.821568 0.558792
-1.02715 0.170249 0.423451 -0.868178 0.234592 -0.437303
-1.0202 0.176743 0.432112 -0.855531 0.231431 -0.463149
-0.257683 -0.0555771 1.21669 0.128907 0.514086 0.847997
-0.263692 -0.0556515 1.22792 0.0496183 0.535252 0.843234
-0.273414 -0.058302 1.20806 0.0970183 0.579099 0.809464
-0.299207 -0.124419 0.545539 -0.266166 0.0652215 0.961718
-0.313995 -0.11556 0.535484 0.308277 -0.114767 -0.944348
-0.309426 -0.120997 0.543487 0.293643 -0.0573019 -0.954196
-0.602337 -0.158584 0.209267 0.476753 0.115832 0.871372
-0.598659 -0.151955 0.196414 0.437356 0.17279 0.882533
-0.583682 -0.146701 0.204849 -0.469012 -0.201906 -0.859803
-0.623171 -0.165743 0.201822 0.368129 0.091051 0.925306
-0.636389 -0.169388 0.197458 0.27633 0.0842407 0.957364
-0.624733 -0.158262 0.180003 -0.315781 -0.102358 -0.943295
-0.849028 0.389255 0.378985 0.708296 -0.54375 0.450169
-0.839204 0.394791 0.385801 0.663954 -0.561685 0.493634
-0.844337 0.410533 0.378646 0.64639 -0.5835 0.491638
-0.190313 -0.0403165 1.35555 -0.0391849 0.988012 -0.149323
-0.923183 0.489193 0.289878 0.759763 -0.269158 0.591874
-0.920968 0.474598 0.298931 0.737551 -0.447317 0.505891
-0.182081 -0.0487809 1.34554 0.0632335 -0.899882 -0.431524
0.565079 0.1898 -0.562917 -0.886473 0.333171 -0.321189
0.559903 0.182588 -0.572738 -0.907181 0.286054 -0.308538
0.559993 0.0852193 -0.461659 -0.919663 -0.0526526 -0.389162
0.55557 0.0777732 -0.47168 -0.912297 -0.080659 -0.401507
-0.959083 -0.0379295 0.579578 -0.854043 0.315054 -0.413947
-0.955877 -0.0532184 0.588278 -0.839994 0.359303 -0.406585
-0.949391 -0.0465567 0.597213 0.789278 -0.421478 0.446538
-0.939886 -0.0409549 0.604368 0.718827 -0.468546 0.513568
-0.944409 -0.0252685 0.596422 0.721951 -0.428602 0.543218
-0.110745 0.125348 1.144 0.761833 -0.562263 0.321669
-0.103982 0.129247 1.15159 0.758193 -0.577311 0.303076
-0.104234 0.106316 1.15238 0.773648 -0.498484 0.391131
-0.967575 0.2867 0.401934 0.732054 0.191378 0.653812
-0.965967 0.288892 0.385524 0.669368 0.429842 0.605956
-0.0745335 -0.0750748 0.0884675 -0.0749207 0.973717 0.215085
-0.848565 0.350837 0.447241 -0.36438 -0.256993 -0.895088
-0.862343 0.347317 0.442916 -0.36454 -0.289345 -0.885093
-0.866507 0.341584 0.46886 -0.375785 -0.178817 -0.909291
-0.212148 -0.172408 -0.0902772 -0.477573 0.713192 0.51311
-0.457091 -0.113148 0.932229 -0.202498 0.651844 0.730818
-0.465955 -0.106611 0.942418 -0.360149 0.71058 0.604457
-0.475498 -0.11011 0.921449 -0.331065 0.689974 0.643686
-0.327358 -0.105735 0.525414 -0.361181 0.168167 0.917207
-0.332815 -0.0991319 0.50426 -0.382584 0.453387 0.805028
-0.433145 -0.287251 0.520661 0.437296 -0.246456 -0.864888
-0.413822 -0.29971 0.533515 -0.45044 0.278046 0.848407
-0.42299 -0.295328 0.541951 -0.488904 0.367561 0.791121
-0.504369 -0.252512 0.509885 0.288298 -0.58203 -0.760346
-0.51184 -0.24798 0.520288 -0.3026 0.645747 0.70103
-0.915937 -0.268342 0.433208 0.419848 -0.71042 -0.564828
-0.935805 -0.261995 0.422588 -0.479865 0.694656 0.535894
-0.493671 -0.253804 0.530443 0.45084 -0.578952 -0.67938
0.0631611 -0.241032 -0.102979 0.00917405 0.851887 0.523644
0.0550628 -0.235403 -0.0929294 -0.010403 0.859279 0.511402
0.0480693 -0.244536 -0.111157 -0.0315192 0.846759 0.531042
0.0696777 -0.230482 -0.0850626 0.0459264 0.873301 0.485011
0.0398907 -0.239141 -0.100825 0.0517619 -0.841195 -0.538249
0.0246666 -0.242553 -0.109015 0.0470032 -0.850287 -0.524217
0.0328685 -0.248066 -0.119317 -0.0392325 0.840433 0.540493
0.13928 -0.197336 -0.0467337 0.166632 0.892433 0.419282
0.147383 -0.202891 -0.0567663 0.188293 0.876972 0.442115
0.160587 -0.194216 -0.0494429 0.226976 0.872849 0.431991
0.152865 -0.189674 -0.0394335 0.191085 0.89058 0.41274
-0.941685 0.519736 0.24407 0.784503 -0.410187 0.465083
-0.933893 0.525883 0.252171 0.730606 -0.456369 0.507881
-0.481842 -0.246086 0.463541 0.0513252 0.0734384 0.995978
-0.469202 -0.243187 0.457589 -0.049652 -0.0540043 0.997305
-0.670432 -0.333732 0.330442 0.180024 0.186139 0.96589
0.145403 -0.146133 0.0158813 -0.176202 -0.943769 -0.279737
-0.0824955 0.0813999 0.202453 -0.117924 -0.992296 -0.0379837
-0.0704677 0.0955705 0.20891 -0.135988 -0.989862 0.0409816
-0.0839989 0.100085 0.213631 -0.186152 -0.982499 -0.00658305
-0.575178 -0.291901 0.397606 0.552579 0.445164 0.704618
-0.580622 -0.293748 0.409247 -0.433082 -0.599397 -0.673174
-0.160331 -0.00169513 1.14457 0.608994 0.0444881 0.791926
-0.149076 0.00368783 1.15066 -0.631971 -0.00215755 -0.774989
-0.159181 -0.00568936 1.15441 0.568277 0.0858779 0.818344
-0.633809 -0.204794 0.585886 -0.166438 -0.909697 -0.38046
-0.939053 0.560591 0.211183 0.798981 0.0692957 0.597351
-0.715498 0.755212 -0.437979 0.486388 -0.871682 -0.0599796
-0.706953 0.761225 -0.430365 -0.448157 0.893931 -0.00655672
-0.730841 0.781505 -0.425054 0.149389 -0.987252 0.0549178
-0.863845 0.376653 0.362335 0.697388 -0.557349 0.450569
-0.506987 0.844613 -0.658798 -0.17328 0.979778 0.100051
-0.520289 0.85229 -0.65409 -0.0105043 0.956257 0.292339
-0.501827 0.86049 -0.644688 -0.0108853 0.959542 0.281355
-0.944879 0.179825 0.521032 0.689963 -0.466188 0.553732
-0.936147 0.1857 0.528491 0.666701 -0.464209 0.583112
-0.938628 0.200656 0.519495 0.665633 -0.453383 0.59277
-0.918823 0.20706 -0.0382873 -0.763922 0.203065 0.612526
-0.913928 0.20772 -0.0577318 0.756204 -0.183416 -0.628103
-0.908381 0.197018 -0.042483 -0.747488 0.199491 0.633613
-0.345538 0.79889 0.119675 0.592051 -0.162976 -0.789249
-0.354795 0.803657 0.127361 0.5823 -0.209653 -0.785476
-0.338252 0.788923 0.137177 0.536573 -0.313168 -0.783591
-0.453796 0.628931 0.373494 0.138458 0.492922 -0.858986
-0.468983 0.629118 0.374457 0.106655 0.469206 -0.876625
-0.454479 0.612254 0.381989 0.183679 0.588991 -0.786989
-0.512988 0.19967 0.56864 -0.593863 -0.403866 0.695858
-0.502605 0.196049 0.562228 0.619654 0.370564 -0.69189
-0.503966 0.211296 0.551361 0.625142 0.276703 -0.729817
-0.116544 0.945027 -0.468085 0.0191491 0.897377 0.440849
-0.126331 0.950273 -0.460301 0.0280726 0.899391 0.436244
-0.10579 0.958065 -0.449408 0.012901 0.895412 0.445052
-0.650571 -0.325489 0.326965 0.402041 0.0760431 0.912459
-0.359318 0.0286115 0.286139 0.383276 0.788103 0.481657
-0.352084 0.0247557 0.275613 0.303871 0.827922 0.471389
-0.338679 0.0340431 0.283107 -0.268895 -0.854834 -0.443795
-0.639957 0.861718 -0.387884 -0.347817 0.880399 -0.322366
-0.628934 0.867206 -0.38198 0.429766 -0.878117 0.210266
-0.643939 0.885361 -0.38275 0.318788 -0.943731 0.0880113
-0.654908 -0.330331 0.338926 -0.28959 -0.42895 -0.855651
-0.502812 0.826015 0.205078 0.00437934 0.241947 0.970279
-0.49437 0.817284 0.224808 -0.0820469 0.086594 0.992859
-0.487646 0.826125 0.204535 -0.0415809 0.208476 0.977143
-1.02531 0.155696 0.432723 -0.868622 0.316396 -0.381299
-1.01907 0.162434 0.441865 -0.848605 0.326246 -0.416453
-0.539111 -0.120565 0.697567 -0.374585 -0.447246 -0.812192
-0.534128 -0.117317 0.685728 0.441272 0.422452 0.791715
-0.519706 -0.111054 0.693717 0.461409 0.334453 0.821732
-0.0588043 -0.263271 0.650996 -0.340546 -0.0992701 0.934973
-0.0473035 -0.265402 0.646965 0.346062 0.0765102 -0.935087
-0.052141 -0.253483 0.630637 -0.369218 -0.0195949 0.929136
-0.6802 0.54954 -0.461338 -0.977963 -0.0967915 0.184983
-0.680561 0.534829 -0.451237 -0.975617 -0.130536 0.176442
-0.68327 0.556502 -0.450853 -0.987126 -0.0733509 0.142132
-0.760458 0.711551 -0.497375 -0.100227 0.818811 0.565246
-0.764433 0.716682 -0.489841 -0.135164 0.867525 0.478676
-0.782038 0.71173 -0.515619 0.258169 -0.68683 -0.679421
0.00233672 -0.254357 -0.135999 -0.101069 0.821412 0.561308
-0.00583634 -0.248651 -0.125806 -0.105344 0.837401 0.536341
0.0181935 -0.252306 -0.12748 -0.0625184 0.836055 0.545071
0.00946085 -0.24562 -0.117338 0.0798356 -0.846773 -0.52593
0.484939 0.197951 -0.732748 0.783543 -0.269775 0.559716
0.492648 0.20404 -0.724493 0.799821 -0.255175 0.543297
0.48504 0.18351 -0.722136 -0.788781 0.252938 -0.56022
0.641541 0.280669 -0.888405 -0.859131 0.089268 -0.50391
0.639047 0.267396 -0.876382 0.855827 0.00761674 0.517205
0.632697 0.260712 -0.885571 0.832992 -0.0121393 0.553152
0.567988 0.174324 -0.553727 -0.896672 0.279557 -0.34326
0.562244 0.167417 -0.563057 -0.892408 0.279194 -0.354484
0.563904 0.0981803 -0.474781 -0.92318 -0.0826667 -0.375372
0.559671 0.090688 -0.484774 -0.91182 -0.0677631 -0.40496
-0.94553 -0.0107166 0.586544 0.749384 -0.224945 0.622754
-0.953766 -0.0167771 0.578642 0.83353 -0.185087 0.520549
-0.919885 0.625115 0.146426 -0.841769 0.191398 -0.504769
-0.918601 0.61073 0.15612 -0.826269 0.242677 -0.508319
-0.911417 0.617277 0.164465 0.810432 -0.224318 0.541184
-0.0758873 0.512035 0.236847 -0.505424 -0.544036 0.669755
-0.183425 0.929186 -0.203783 0.200176 -0.944955 0.258823
-0.187932 0.910025 -0.200475 0.0775709 -0.682405 0.726847
-0.442319 0.545195 0.413578 0.0894117 0.417723 -0.904164
-0.443028 0.528627 0.422306 -0.0752556 -0.593394 0.801386
-0.193532 -0.1777 -0.0801425 -0.403436 0.753755 0.518741
-0.183543 -0.18715 -0.0897979 -0.400202 0.745498 0.532984
-0.202209 -0.181995 -0.0998098 -0.464617 0.714524 0.523056
-0.28329 -0.0677609 1.04193 -0.505807 -0.375108 -0.776822
-0.27849 -0.0641502 1.03023 0.547615 0.324425 0.771276
-0.825832 0.745623 0.0532126 -0.588634 -0.395965 -0.704785
-0.834449 0.739775 0.0455959 0.618042 0.371114 0.693035
-0.476478 -0.0956344 0.952022 -0.550579 0.727053 0.41019
-0.260792 -0.0569209 1.06906 -0.52564 -0.383289 -0.759468
-0.369796 -0.0892201 0.528645 0.337239 -0.0756016 -0.938378
-0.365557 -0.0866552 0.515235 -0.389614 0.296381 0.871986
-0.376433 -0.0856616 0.525853 -0.372593 0.13193 0.918569
-0.484636 -0.260254 0.520412 -0.408437 0.445188 0.796861
0.112009 -0.21222 -0.0617506 0.116611 0.878813 0.462698
0.120109 -0.217499 -0.0720414 0.1273 0.87854 0.460393
0.13378 -0.210415 -0.0642505 -0.157687 -0.872177 -0.463078
-0.915707 -0.256753 0.462943 0.402724 -0.748928 -0.526232
-0.926466 -0.245839 0.472115 -0.439708 0.753008 0.489526
-0.936448 -0.249478 0.452227 -0.488649 0.706375 0.51211
0.0838152 -0.2245 -0.0772052 0.0649375 0.877512 0.475137
0.0777099 -0.235989 -0.095108 0.0537239 0.864299 0.500101
0.0918942 -0.230052 -0.0872771 0.0748305 0.872195 0.483401
-0.368912 -0.102155 0.994862 0.221271 0.53481 0.815486
-1.02292 0.140718 0.441924 -0.859503 0.369524 -0.353138
-1.01671 0.147461 0.451054 0.830897 -0.395312 0.391585
-0.354264 -0.0977688 1.0029 -0.283538 -0.496574 -0.820378
0.17377 -0.185598 -0.0420193 0.236997 0.881677 0.408019
0.165956 -0.180748 -0.0322565 0.22544 0.889808 0.396759
-0.85847 0.709581 0.0693046 0.809931 0.0648298 0.582931
-0.427332 0.028131 0.677594 0.827102 -0.530251 0.186375
-0.423391 0.00716045 0.68411 0.836785 -0.429763 0.339257
-0.42895 0.0260994 0.675227 0.83875 -0.503826 0.206539
-0.781125 0.709075 -0.529401 0.190297 -0.612299 -0.767383
0.132258 -0.155223 0.00883342 0.126733 0.936793 0.326126
-0.615619 -0.180803 0.61147 0.192108 0.907158 0.374379
-0.606999 -0.187043 0.600921 0.199626 0.905899 0.373491
-0.593583 -0.177938 0.608328 0.202619 0.910207 0.361206
-0.0847288 -0.184715 -0.03594 0.132257 -0.901125 -0.412895
-0.0939544 -0.176257 -0.0262027 0.135035 -0.900463 -0.413439
-0.100165 -0.188084 -0.0442708 0.16081 -0.897341 -0.410998
-0.109386 -0.179559 -0.0346649 0.183346 -0.889013 -0.419571
-0.903375 0.651394 0.151439 0.754153 0.0015609 0.656696
-0.872938 0.129201 0.594392 0.616707 -0.653515 0.438851
-0.863358 0.134752 0.601442 0.60436 -0.636914 0.478634
-0.891654 0.616868 0.22551 0.665555 0.206219 0.717293
-0.901566 0.611313 0.218766 0.660548 0.211631 0.720339
-0.898503 0.605145 0.240113 0.703627 0.0486454 0.708903
-0.561743 0.720418 0.3494 0.147386 0.429123 -0.89114
-0.560673 0.704898 0.359553 -0.178052 -0.458103 0.870884
-0.548323 0.719186 0.346902 0.209914 0.445842 -0.87015
-0.126398 -0.257261 0.666443 0.0814559 0.446471 -0.891083
-0.126252 -0.27378 0.676322 -0.0542851 -0.510587 0.858111
-0.110159 -0.273009 0.675757 -0.0664352 -0.470744 0.879765
-0.34626 0.79427 0.146914 0.540079 -0.287586 -0.790954
-0.337349 0.785385 0.166549 0.514121 -0.227336 -0.827042
-0.327391 0.78099 0.15989 0.529274 -0.256203 -0.808844
-0.476216 0.115727 0.574321 0.744606 0.309251 -0.591546
-0.467685 0.110566 0.565629 0.755075 0.311629 -0.576844
-0.467364 0.127516 0.556796 -0.731205 -0.399425 0.552991
-0.503218 0.179193 0.57068 0.598194 0.464349 -0.653103
-0.697517 0.919025 -0.381532 -0.330924 0.909102 -0.253029
-0.348622 0.680216 0.311333 0.234955 0.347869 -0.907625
-0.347362 0.66532 0.322433 0.16684 0.430157 -0.887203
-0.336072 0.678188 0.307453 -0.333202 -0.26647 0.904417
0.0979054 -0.218353 -0.0694677 0.082277 0.881133 0.465656
0.106011 -0.223884 -0.0795573 0.0987836 0.877096 0.470047
-0.343737 -0.0555097 0.0885086 0.126551 0.674707 0.727155
-0.359866 -0.0582852 0.0798655 0.0499117 0.636116 0.769978
-0.352733 -0.0605787 0.06895 0.053805 0.604669 0.794657
-0.861092 0.696199 0.081616 0.788455 0.0696528 0.611136
-0.571692 -0.0335053 0.838854 -0.891838 0.279888 -0.355371
-0.567528 -0.0475981 0.849631 0.902843 -0.389588 0.181924
-0.562813 -0.0317952 0.857916 -0.887934 0.313181 -0.336883
-0.339654 -0.093038 1.01097 -0.322475 -0.460408 -0.827064
-0.117024 -0.197126 0.563444 -0.399631 0.307821 0.863447
-0.103165 -0.205614 0.572197 -0.375777 0.257423 0.890239
-0.108696 -0.199279 0.55272 -0.393213 0.373769 0.840047
-0.454344 0.693174 0.336735 -0.239295 -0.524961 0.816795
-0.467917 0.694266 0.338905 0.165225 0.549901 -0.818724
-0.454351 0.676838 0.345407 -0.186013 -0.524754 0.830682
-0.706106 -0.14419 0.664784 -0.0475192 0.977555 0.205252
0.602477 0.392443 -0.976989 0.728347 -0.599476 0.331873
0.610705 0.398195 -0.968852 0.75523 -0.579908 0.305506
0.609571 0.375031 -0.970082 0.729072 -0.588968 0.34867
0.590479 0.171984 -0.435893 -0.933983 -0.111462 -0.339487
0.594197 0.179721 -0.425136 -0.934238 -0.142089 -0.327123
0.586446 0.159035 -0.422696 -0.94845 -0.141897 -0.283385
0.569186 0.159392 -0.543614 -0.906122 0.183064 -0.381353
0.563506 0.152455 -0.552975 -0.895456 0.203374 -0.395978
0.56312 0.138096 -0.542028 -0.906351 0.123777 -0.40399
0.568621 0.145064 -0.532671 -0.909508 0.111369 -0.400489
0.562133 0.124008 -0.53096 -0.908319 0.0660816 -0.413026
0.570643 0.124549 -0.500175 -0.909247 -0.00903927 -0.416158
0.567456 0.111285 -0.487236 -0.918755 -0.0594706 -0.390324
0.562721 0.103963 -0.497198 -0.908961 -0.0166142 -0.416549
0.565141 0.117536 -0.509459 -0.907949 0.0160788 -0.418772
-0.912016 0.631442 0.154348 0.815579 -0.213779 0.537708
-0.904431 0.637607 0.162613 0.779767 -0.230979 0.581904
-0.808145 -0.0765776 0.690902 -0.288713 0.883739 -0.368307
-0.794291 -0.0720759 0.695889 -0.299597 0.852252 -0.428845
-0.883106 0.622886 0.233178 0.761615 0.216236 0.610888
-0.115215 -0.0296076 0.125298 -0.0443673 0.98729 0.152609
-0.100449 -0.0218262 0.131774 -0.00631217 0.993555 0.113174
-0.084359 -0.0278065 0.127111 -0.00332868 0.993214 0.116257
-0.0836691 -0.0100272 0.140477 -0.0265622 -0.99589 -0.0865916
-0.129089 -0.0373169 0.117777 0.092377 -0.974146 -0.206168
-0.14405 -0.0424802 0.110093 -0.10461 0.969023 0.223723
-0.220591 -0.0111317 1.02873 0.765389 0.0314943 0.642797
-0.219402 -0.0191598 1.05299 0.722651 0.127462 0.679359
-0.227957 -0.0251734 1.04531 0.705779 0.125674 0.697195
-0.15842 -0.0485213 0.102014 0.112109 -0.96283 -0.245745
-0.172803 -0.05457 0.0939696 -0.114649 0.96404 0.239754
-0.628918 -0.137554 0.677689 -0.0931336 0.880186 0.465402
-0.90339 0.623373 0.172442 0.827308 -0.175108 0.53376
-0.906134 0.610115 0.184766 0.778793 0.117518 0.616174
-0.187794 -0.0595272 0.0860437 -0.140708 0.955099 0.260742
-1.01944 0.125402 0.45037 -0.843483 0.435269 -0.314765
-1.01314 0.132159 0.459488 0.811893 -0.458967 0.360803
-0.994982 0.236498 0.424179 0.805856 -0.0531722 0.58972
-0.988126 0.242742 0.433029 0.783932 -0.065064 0.617428
-0.982912 0.39211 0.200298 -0.945154 0.322543 -0.051468
-0.976638 0.378965 0.211167 -0.923492 0.380048 -0.0522168
-0.923529 0.584313 0.180119 -0.791867 -0.230859 -0.565377
-0.637501 -0.320557 0.378075 0.224143 0.651833 0.724482
-0.645817 -0.32655 0.358891 0.225336 0.619832 0.751686
-0.845352 0.819823 -0.433417 -0.561856 0.822007 -0.0928571
-0.851341 0.813205 -0.442846 0.608579 -0.79331 0.0170546
-0.830084 0.801902 -0.433063 -0.38963 0.920915 -0.0101864
-0.408088 -0.0941417 0.827681 -0.434164 -0.167162 -0.885189
-0.663676 -0.123278 0.688902 0.112061 -0.969164 -0.219461
-0.865161 0.688216 0.168871 0.746812 0.157386 0.646144
0.125668 -0.204912 -0.0541544 0.141749 0.8881 0.437249
-1.04404 -0.0757558 0.408176 0.805364 -0.322957 0.497079
-1.0505 -0.08233 0.399255 0.827758 -0.340865 0.445677
-1.04207 -0.0905719 0.417663 0.822572 -0.382866 0.420463
-0.926211 0.573962 0.22907 0.825532 -0.0510331 0.562043
-0.919657 0.580353 0.23801 0.800191 -0.108008 0.58994
-0.916346 0.593427 0.225512 0.781377 0.0703585 0.62008
-0.938783 0.043677 0.539877 0.767973 -0.365614 0.525875
-0.937463 0.0291163 0.54965 -0.749609 0.269881 -0.604359
-0.883547 0.671668 0.0803162 0.657269 0.299077 0.691773
-0.875091 0.677762 0.087968 0.67613 0.307973 0.669329
-0.868692 0.690108 0.0732325 0.781342 0.0969052 0.616534
-0.229604 -0.162558 0.470401 -0.413206 0.83088 0.372692
-0.246577 -0.159487 0.463876 -0.378991 0.872643 0.307993
-0.251257 -0.150287 0.470748 -0.403453 0.830148 0.384811
0.358225 0.326661 -0.0205301 -0.525172 -0.730284 0.436897
0.347887 0.33009 -0.0130065 -0.626673 -0.699765 0.342944
0.346317 0.310216 -0.00989937 0.676337 0.51711 -0.524562
-0.0860165 0.151532 1.20189 -0.464399 0.233218 0.854367
-0.0929838 0.143076 1.2238 -0.112888 -0.146286 0.98278
-0.0775325 0.143331 1.2123 0.51078 -0.162202 -0.844271
-0.886936 0.176125 0.571158 0.561515 -0.489871 0.666879
-0.883648 0.160981 0.579835 0.563372 -0.543877 0.62194
-0.875017 0.180999 0.576769 0.507887 -0.486045 0.711205
-0.886879 0.554511 0.287563 0.720424 -0.376468 0.582461
-0.877443 0.560288 0.294686 0.646288 -0.410528 0.643256
-0.880496 0.57506 0.285986 0.64193 -0.498555 0.582554
0.186784 -0.17633 -0.0351077 0.260604 0.878255 0.400941
0.178749 -0.171227 -0.0247409 0.248832 0.895729 0.368446
-0.570033 0.80984 -0.213413 -0.953731 -0.267293 -0.137668
-0.568071 0.823183 -0.226973 -0.998786 -0.0491961 -0.00249841
-0.214297 -0.0206898 1.34815 0.183979 -0.653718 0.734033
-0.230513 -0.0237132 1.34533 -0.261079 0.768561 -0.584082
-0.402748 -0.0447463 0.46343 -0.966544 0.108285 0.232525
-0.39829 -0.0608599 0.473646 -0.934617 0.247212 0.25569
-0.402194 -0.0532259 0.452651 -0.97398 0.223434 0.0379595
0.118632 -0.162788 0.00135991 0.0926399 0.935139 0.341954
-0.475437 0.0680202 0.667418 0.325788 -0.747817 -0.578473
-0.453867 0.0642664 0.677807 0.435852 -0.765241 -0.473751
-0.451025 0.0576553 0.667083 0.496087 -0.779952 -0.38154
-0.431911 -0.290476 0.550507 0.514649 -0.458854 -0.724285
-0.422037 -0.296472 0.553982 -0.548941 0.443698 0.708375
-0.268217 0.0845959 0.910147 0.796386 -0.603628 0.0374595
-0.265408 0.0951541 0.920624 0.792133 -0.610348 -0.000664661
-1.01471 0.109702 0.458113 0.821454 -0.498059 0.27776
-1.00838 0.116461 0.467184 0.795061 -0.513006 0.32358
-0.0693248 -0.18125 -0.0276913 0.10808 -0.91208 -0.395511
-0.0785484 -0.172936 -0.0178697 0.109171 -0.911658 -0.396183
0.0207846 -0.0886702 0.0813502 0.0187433 0.982219 0.186802
0.00752967 -0.0975755 0.0739687 0.00102861 0.973805 0.227381
-0.974559 0.103407 0.506428 0.675345 -0.646642 0.354632
-0.97185 0.125401 0.507041 0.672606 -0.590289 0.446274
-0.202744 -0.0640318 0.0774969 0.198701 -0.927547 -0.316503
-0.468676 0.677531 0.347023 0.139438 0.549973 -0.82346
-0.454253 0.660643 0.354254 0.141678 0.514567 -0.845664
-0.917331 0.638335 0.134273 0.800641 0.0484245 0.597184
-0.91151 0.645082 0.143637 0.785825 0.0388483 0.617228
-0.90416 0.657233 0.128232 0.699793 0.28769 0.653853
-0.50417 0.16202 0.578724 0.631104 0.433419 -0.643317
-0.514385 0.165744 0.585383 -0.559291 -0.447285 0.697947
-0.50409 0.145715 0.588192 0.612738 0.367178 -0.699809
-0.109525 -0.256338 0.666204 0.143701 0.390222 -0.909438
-0.474287 0.769226 0.285687 0.250259 0.188951 -0.949562
-0.471225 0.756046 0.298805 -0.249555 -0.252124 0.934963
-0.461712 0.767442 0.28205 -0.25689 -0.189736 0.947633
-0.958921 0.318794 -0.115198 0.868622 0.216092 -0.44587
-0.960612 0.30732 -0.10081 -0.904755 -0.107882 0.412043
-0.961738 0.321439 -0.110868 0.888079 0.194231 -0.416642
-0.908689 0.416516 -0.228831 0.790859 0.562953 -0.240053
-0.915604 0.42274 -0.218837 -0.813834 -0.529056 0.240362
-0.908644 0.427237 -0.227413 0.781198 0.588252 -0.209019
-0.715324 0.316428 0.555225 -0.181378 -0.178087 0.967154
-0.700929 0.315394 0.553143 -0.159555 -0.206827 0.96528
-0.705875 0.328102 0.538108 -0.109212 -0.132995 0.985081
-0.465539 -0.0943279 0.737746 -0.453908 -0.140549 -0.879894
-0.462041 -0.0868563 0.725237 -0.520874 -0.0869535 -0.849193
-0.952318 -0.224754 0.481399 0.543403 -0.715283 -0.439413
-0.948551 -0.222467 0.490135 0.54038 -0.720231 -0.435036
-1.06574 -0.0064228 0.35538 0.762858 -0.596732 0.248915
-1.07273 -0.0127643 0.346698 0.75263 -0.591576 0.289113
-1.05874 -0.0228865 0.361748 0.780066 -0.526191 0.338557
-1.08737 0.0941013 0.318042 0.76929 -0.426408 0.475783
-1.08984 0.108844 0.309191 0.754063 -0.380749 0.535181
0.483134 0.0543687 -0.624687 0.771954 -0.194206 0.605287
0.474636 0.0485207 -0.632521 0.760644 -0.19361 0.619626
0.475717 0.0625901 -0.643812 0.76942 -0.2313 0.595393
0.617177 0.381327 -0.961855 0.744251 -0.589028 0.31486
0.567001 0.131266 -0.521104 -0.909381 0.0608569 -0.411489
0.559667 0.110488 -0.518778 -0.905003 0.0267724 -0.424562
0.573755 0.152312 -0.522861 -0.901359 0.107929 -0.419407
0.572681 0.138211 -0.511826 -0.909462 0.0483891 -0.412961
-0.575251 0.842813 -0.332007 -0.896364 0.441901 0.0354382
-0.576839 0.834908 -0.344344 0.866049 -0.455513 0.206076
-0.569078 0.826344 -0.325648 -0.920673 0.365353 -0.137399
-0.218248 -0.067215 0.0688734 0.243933 -0.895566 -0.372099
-0.348842 -0.0907242 1.06428 -0.131986 -0.643273 -0.754175
-0.363919 -0.0938948 1.05602 -0.0499616 -0.674751 -0.736352
-0.15484 0.7265 0.0620982 0.2434 0.160842 -0.956497
-0.150984 0.713566 0.0757702 0.338206 0.146356 -0.929622
-0.141475 0.725027 0.0592051 0.146245 -0.329183 0.932872
-0.844586 0.0772509 0.60903 -0.576625 0.715374 -0.394644
-0.834833 0.0828097 0.616025 -0.579251 0.721669 -0.379027
-0.897573 -0.0342243 0.640836 0.619215 -0.148919 0.770971
-0.886795 -0.0290209 0.647219 0.577735 -0.138133 0.804451
-0.705327 0.378853 0.465005 0.0154767 -0.0692248 0.997481
-0.726525 0.387169 0.450479 0.131825 -0.279853 0.950949
-0.726882 0.375587 0.47476 0.0323253 0.0628685 0.997498
-0.235449 -0.0667002 0.0598591 -0.24811 0.869039 0.428034
-0.448223 0.886723 -0.618237 -0.0414824 0.961571 0.271405
-0.465424 0.877456 -0.626437 -0.0144347 0.964252 0.264593
-0.459002 0.89263 -0.611297 -0.0622343 -0.922162 -0.381765
-0.0271193 0.0593323 1.26333 -0.971068 0.192886 -0.140791
-0.603344 0.817334 -0.366245 0.544725 -0.548631 0.634254
-0.615528 0.812147 -0.371166 0.500566 -0.559847 0.660306
0.574552 0.166515 -0.533946 -0.899764 0.178715 -0.398102
-1.00886 0.0936112 0.465203 0.807301 -0.544667 0.227164
-1.0026 0.100389 0.474265 0.789095 -0.552549 0.268364
-0.251461 -0.0683572 0.0508131 0.226276 -0.844583 -0.485262
-0.478079 -0.0551313 -0.0176612 -0.385114 0.351436 0.853335
-0.487966 -0.0512425 -0.0102421 -0.44988 0.380486 0.807984
-0.496597 -0.0432656 -0.0288849 -0.460141 0.278644 0.842987
-0.00624075 -0.105167 0.066425 -0.0315712 0.96282 0.268293
-0.0545761 -0.176615 -0.0195735 0.079103 -0.920372 -0.38296
-0.0397946 -0.171959 -0.0115175 0.0730047 -0.922917 -0.378014
-1.05258 -0.0674691 0.389891 0.812726 -0.320858 0.48634
-1.05983 -0.0738021 0.381388 0.816443 -0.356028 0.454604
-0.805065 0.753451 0.126967 0.590186 0.256367 0.765478
-0.795003 0.758682 0.13365 -0.534641 -0.299389 -0.790269
-0.784166 0.76617 0.125168 -0.433388 -0.370418 -0.821563
-0.0556063 0.488141 0.232076 -0.496766 -0.518728 0.695805
-0.0555478 0.472112 0.241126 -0.481424 -0.46501 0.742965
-0.0439426 0.469351 0.236173 0.419229 0.472218 -0.775408
-0.837354 0.0606246 0.615314 0.585011 -0.662795 0.467403
-0.911612 0.274064 0.499811 0.56365 -0.3315 0.756575
-0.923486 0.269035 0.494103 0.608832 -0.289018 0.738777
-0.912907 0.26052 0.511049 0.55609 -0.292782 0.777844
-0.891356 0.336702 0.434879 0.45343 0.303762 0.837932
-0.903504 0.326844 0.452883 0.536547 0.148497 0.830702
-0.720623 -0.150838 0.657316 -0.0199073 0.976647 0.213924
-0.734661 -0.158755 0.649872 -0.0309147 0.973767 0.225437
0.181658 -0.190191 -0.0528106 0.270191 0.850682 0.45093
0.168563 -0.199198 -0.059924 0.264477 0.849189 0.457089
0.189261 -0.194235 -0.0632416 -0.297225 -0.823288 -0.483585
0.0278502 -0.159881 0.0102141 -0.00869623 0.947722 0.318978
0.0176435 -0.149275 0.020132 -0.0197727 0.952104 0.305134
0.0130974 -0.164879 0.00252378 -0.0443919 0.938093 0.343526
0.11918 -0.300091 0.578686 -0.243992 0.274734 0.930048
0.133117 -0.303576 0.578886 -0.224313 0.311667 0.923335
0.115631 -0.297327 0.568666 -0.258614 0.331925 0.907163
-0.890276 0.569516 0.279197 0.673655 -0.474595 0.566523
-0.883818 0.590044 0.277651 0.670159 -0.428885 0.605759
-0.513273 0.133762 0.605211 -0.590686 -0.392588 0.704957
-0.503485 0.129618 0.598182 -0.62095 -0.381136 0.68495
0.204371 -0.151687 -0.0109053 0.28947 0.908871 0.300269
0.191782 -0.162046 -0.0178002 0.260239 0.901112 0.346803
0.212205 -0.156392 -0.0208707 0.312682 0.891245 0.328501
0.199525 -0.166483 -0.0278856 0.278718 0.880771 0.382831
-0.913256 0.321384 0.445988 0.577377 0.143004 0.803857
-0.87126 0.350064 0.388258 -0.556647 -0.358941 -0.749203
-0.888723 0.340997 0.409892 0.461265 0.399114 0.792428
-0.877103 0.346653 0.415452 0.43018 0.358173 0.828648
0.1054 -0.171271 -0.00629584 0.0759227 0.935149 0.346024
-0.464175 0.414747 0.451118 -0.0655945 -0.681084 0.729261
-0.467644 0.395763 0.456529 -0.0786476 -0.740651 0.667271
-0.45243 0.395811 0.455659 -0.0894902 -0.766717 0.635718
-1.00163 0.0771137 0.471358 0.782487 -0.598108 0.17315
-0.996269 0.0843439 0.480888 0.777598 -0.597258 0.19653
-0.0954189 0.616977 0.197176 0.30335 0.398659 -0.865477
-0.0951856 0.60107 0.206549 -0.428024 -0.444721 0.786778
-0.0836101 0.598188 0.201536 -0.426156 -0.483792 0.764419
-0.638249 0.55105 0.427857 0.151532 -0.590219 0.792894
-0.633324 0.535195 0.434497 0.0701734 -0.664414 0.744063
-0.61906 0.552038 0.429001 0.0935789 -0.635243 0.766622
-0.57192 0.163154 0.620784 0.357201 0.512674 -0.780751
-0.583526 0.165824 0.625554 0.334468 0.531209 -0.778426
-0.572707 0.146067 0.629052 -0.330875 -0.552208 0.765237
-0.561341 0.68852 0.368397 0.184996 0.489515 -0.852145
-0.5471 0.687547 0.366284 0.230207 0.488539 -0.841626
-0.599282 0.476218 0.450922 -0.0308892 -0.705757 0.70778
-0.602811 0.457225 0.455982 -0.00634078 -0.716865 0.697183
-0.587579 0.4573 0.45531 -0.0752082 -0.721076 0.688762
-0.585889 0.147543 0.632503 -0.316168 -0.573419 0.755797
-0.585937 0.130923 0.641267 0.314081 0.509284 -0.801238
-0.573527 0.12887 0.637273 0.340213 0.50657 -0.792238
-0.474596 0.166188 0.548303 0.720683 0.37824 -0.580991
-0.475448 0.149187 0.556543 -0.700164 -0.436449 0.56505
-0.465389 0.1617 0.540532 0.73895 0.350798 -0.575233
-0.50691 0.81829 0.228369 0.0502146 -0.108635 -0.992813
-0.501106 0.808041 0.244924 -0.0929576 -0.0299343 0.99522
-0.720381 0.328532 0.539723 -0.0895235 -0.0901418 0.991897
-0.420525 0.49002 0.42981 -0.150084 -0.774222 0.614862
-0.435761 0.489994 0.43076 -0.0527134 -0.797713 0.600729
-0.425043 0.470278 0.433111 -0.101358 -0.747749 0.6562
-0.498252 0.472309 0.440346 -0.180829 -0.723168 0.666581
-0.501745 0.453357 0.44521 -0.16046 -0.726518 0.66815
-0.487494 0.452707 0.443297 -0.178824 -0.713384 0.677573
-0.708013 0.273135 0.592153 -0.174632 -0.316097 0.932516
-0.694531 0.271897 0.589296 -0.222605 -0.2934 0.929711
-0.696678 0.286424 0.577172 0.194045 0.339603 -0.920335
-0.712216 0.30254 0.568324 -0.180827 -0.311048 0.933033
-0.698757 0.301158 0.565302 0.195636 0.318127 -0.927643
-0.14536 0.182483 1.12027 0.63398 -0.727455 -0.262447
-0.162499 0.192343 1.11432 0.484746 -0.550721 -0.679506
-0.148853 0.18736 1.12843 -0.509342 0.661236 0.550761
0.0460242 -0.272711 0.559631 0.354427 -0.305767 -0.883679
0.0553754 -0.27463 0.548867 -0.358494 0.391818 0.847326
0.0392152 -0.267244 0.538552 0.361206 -0.449303 -0.817103
0.0311324 -0.264496 0.549324 0.386011 -0.387606 -0.837112
0.0217575 -0.260787 0.52829 -0.380512 0.528283 0.75903
-0.750115 -0.0607686 0.707413 -0.114695 0.909789 -0.398911
-0.729969 -0.0799693 0.703553 -0.115869 0.982932 -0.142897
-0.733979 -0.0571701 0.709393 -0.0882691 0.896707 -0.433733
-0.877511 0.764472 -0.616912 0.790634 0.00457271 -0.612272
-0.864133 0.748016 -0.61118 -0.654995 0.121822 0.745749
-0.878877 0.76046 -0.603862 0.771903 -0.140984 -0.619911
0.601492 0.234783 -0.4723 -0.966455 0.147757 -0.210077
0.59808 0.226848 -0.483037 -0.971542 0.111669 -0.208893
0.597336 0.241664 -0.493163 -0.973399 0.154536 -0.169154
-0.490493 -0.129492 0.319666 0.685077 -0.0404099 0.727349
-0.49957 -0.134931 0.312199 0.675826 -0.0500954 0.735357
-0.49483 -0.120702 0.297625 -0.650574 -0.00155221 -0.759441
0.557649 0.0968066 -0.507111 -0.908175 0.00117765 -0.418589
0.573801 0.18117 -0.544354 -0.891324 0.278921 -0.357415
0.158279 0.203644 0.151211 0.377241 0.880548 -0.286922
0.170646 0.199502 0.145445 0.345481 0.896162 -0.278453
0.167074 0.219074 0.154575 -0.290608 -0.94469 0.152015
-0.054559 1.00285 -0.136028 -0.181529 0.868776 -0.460733
-0.0648096 0.982691 -0.133547 0.458593 -0.555417 0.693689
-0.0507382 0.987442 -0.129937 0.400707 -0.529921 0.747407
-0.408576 0.0396158 0.709228 0.814999 -0.576653 0.0569945
-0.39983 0.0273393 0.720055 0.845806 -0.502011 0.18055
-0.405462 0.0286668 0.711675 0.855618 -0.471095 0.214448
-0.268094 -0.0690025 0.0418602 0.226167 -0.798938 -0.557266
-0.284552 -0.0688931 0.0324895 -0.253563 0.716012 0.65041
-0.303393 -0.0643754 0.0225186 0.230774 -0.658202 -0.716598
-0.319925 -0.0637584 0.0132626 0.167897 -0.599382 -0.782657
-0.338318 -0.0610781 0.00360603 -0.112736 0.548945 0.828221
-0.503577 -0.114959 0.746246 0.341092 0.287648 0.894939
0.250199 0.643794 0.159718 0.635106 0.541049 -0.551277
0.254728 0.622269 0.157611 0.741872 0.58179 -0.333385
0.260845 0.655837 0.144601 0.700112 0.392578 -0.596427
-0.460462 -0.0759113 1.0061 0.673181 -0.674112 -0.303974
-0.502995 0.0803492 0.62702 0.664336 0.199708 -0.72026
-0.496259 0.0742328 0.625745 -0.654348 0.00278018 0.756188
-0.493285 0.0762402 0.619663 0.686511 0.152399 -0.710969
-0.486655 0.0722242 0.615141 0.722677 0.138724 -0.677121
0.1772 -0.320864 0.619852 -0.0228046 0.178758 0.983629
0.173911 -0.327429 0.634343 -0.01311 0.0937661 0.995508
0.189054 -0.327082 0.633372 -0.000746033 0.13542 0.990788
0.571096 0.196643 -0.553618 -0.875661 0.363428 -0.318022
0.565915 0.227703 -0.572504 -0.957857 0.0708166 -0.278378
0.567628 0.212599 -0.562451 -0.913456 0.302394 -0.272314
-0.222198 -0.19248 0.447093 -0.257379 0.966223 -0.0129849
-0.212152 -0.18723 0.454589 -0.325457 0.941099 0.091714
-0.198063 -0.216927 0.443935 0.228035 -0.946929 0.226552
-0.185152 -0.212141 0.44917 0.327071 -0.943079 0.0602238
-0.158325 -0.237739 0.444774 0.0504894 -0.983993 0.170905
-0.177197 -0.240322 0.443258 0.0696485 -0.916973 0.392823
-0.355057 -0.0617337 -0.00544179 -0.00216782 0.568484 0.822691
-0.173006 -0.43563 0.643468 -0.480456 0.652084 0.586471
-0.192458 -0.426832 0.633025 -0.469772 0.626345 0.622098
-0.184124 -0.434299 0.622736 -0.459086 0.491341 0.740152
-0.164528 -0.442623 0.633152 0.394996 -0.481444 -0.782425
-0.0205039 -0.11127 0.0586088 -0.0538626 0.961407 0.269806
-0.0342424 -0.118529 0.050752 -0.0588169 0.958435 0.279184
-0.0250444 -0.167215 -0.00356022 0.0715936 -0.932739 -0.353372
-0.924761 0.45331 0.298743 0.747259 -0.500979 0.436605
-0.338966 -0.0708725 0.880605 0.604603 0.128623 0.786073
-0.353992 -0.0788914 0.871717 0.538738 0.156447 0.82782
0.0775942 -0.184623 -0.0216777 0.0323478 0.929173 0.368226
0.0639558 -0.191873 -0.0293725 -0.00595984 0.918173 0.396134
-0.856982 0.694566 0.176724 0.697701 0.0866252 0.711133
-0.0299083 -0.245009 -0.124144 -0.101397 0.829477 0.54926
-0.045764 -0.246834 -0.132812 0.108406 -0.823533 -0.556813
0.195887 -0.144856 -0.000715759 0.277743 0.918553 0.281281
0.216221 -0.138958 -0.00396722 -0.332606 -0.904216 -0.267894
-0.87895 0.145294 0.587554 0.599771 -0.606896 0.52149
-0.868013 0.150393 0.593741 0.579252 -0.559964 0.592374
-0.872702 0.166098 0.586001 0.523962 -0.510854 0.681537
0.194814 -0.181492 -0.045425 0.29131 0.855504 0.428079
-0.993091 0.0602723 0.476701 0.740048 -0.666694 0.0885903
-0.987909 0.067504 0.486367 0.725118 -0.675512 0.133742
-1.05453 0.0302825 0.376676 0.826062 -0.517301 0.223654
-1.06048 0.0235495 0.36744 0.81374 -0.53251 0.23294
-1.04843 0.0142331 0.383547 0.801695 -0.572575 0.171593
-0.0310869 -0.240219 0.580207 -0.435773 0.237372 0.868191
-0.0322464 -0.237708 0.571896 -0.43702 0.329072 0.837093
-0.041634 -0.236222 0.58462 -0.428103 0.229936 0.873989
-1.14645 0.042798 0.247829 0.910445 -0.323355 0.257938
-1.1446 0.0651514 0.250307 -0.902822 0.274799 -0.330753
-1.1502 0.0563684 0.237567 0.923475 -0.2163 0.316872
-0.413232 -0.00773687 0.485718 -0.971707 -0.112369 0.207749
-0.412834 -0.0211097 0.49767 -0.964884 -0.143825 0.219801
-0.411548 -0.0256253 0.495955 -0.94958 -0.136336 0.28233
-0.0526042 -0.324397 0.696458 0.126173 0.548525 -0.826559
-0.0533861 -0.341843 0.704675 -0.0710922 -0.613046 0.786842
-0.0382067 -0.341505 0.703641 -0.059195 -0.595127 0.801448
0.468446 0.498637 -1.03709 0.338436 -0.936156 0.0952533
0.481236 0.48366 -1.03839 -0.331135 0.931801 -0.148648
0.469956 0.478066 -1.04479 -0.312887 0.929832 -0.193686
-0.145344 -0.0542141 1.32147 -0.138936 -0.475745 -0.868541
0.304707 0.628847 -0.99608 0.0861453 -0.99352 -0.0741459
0.289908 0.637214 -0.992599 -0.0640848 0.992611 0.103033
0.309348 0.645439 -0.982578 0.109817 -0.987342 -0.114435
-0.831001 0.0442223 0.621546 0.547943 -0.648986 0.527802
-0.820216 0.049584 0.628366 0.563354 -0.686128 0.460284
-0.827495 0.0662129 0.622159 0.585965 -0.676587 0.445954
0.224375 -0.144833 -0.0140191 -0.364053 -0.88933 -0.276692
0.242059 -0.13549 -0.0153809 -0.414572 -0.877064 -0.24267
0.233619 -0.132358 -0.00639115 -0.400483 -0.88826 -0.224962
0.0917636 -0.178263 -0.0141843 0.0505691 0.93302 0.356254
-0.452255 -0.277644 0.552829 -0.545772 0.528526 0.650225
-0.45191 -0.27848 0.536559 0.517552 -0.412196 -0.749823
-0.442429 -0.283141 0.52903 0.477059 -0.364281 -0.799821
-0.472069 0.375907 0.460203 -0.108615 -0.814384 0.570072
-0.466381 0.357176 0.459205 0.136611 0.858951 -0.493499
-0.460735 0.374218 0.459185 -0.12932 -0.831753 0.539873
-0.215759 -0.0460599 1.21059 -0.228145 -0.376726 -0.89779
-0.210523 -0.0433738 1.19883 -0.261767 -0.375244 -0.889196
-0.194739 -0.0415131 1.20752 -0.274407 -0.324475 -0.905217
-0.219408 0.889242 -0.163219 0.628 0.150936 -0.763436
-0.228081 0.894159 -0.154573 0.677896 0.145172 -0.720682
-0.217428 0.874825 -0.151789 0.603532 0.131801 -0.78637
-0.225166 0.880413 -0.141977 0.653105 0.141256 -0.743976
0.00412729 0.956072 -0.456417 0.0290812 0.887803 0.459304
-0.00468045 0.960682 -0.447798 0.0251402 0.894121 0.447119
0.0159734 0.968623 -0.43688 0.0265143 0.896441 0.442369
-0.675992 0.81037 -0.694495 0.0831601 0.936194 0.341503
-0.685547 0.815649 -0.686527 -0.0899036 -0.919144 -0.383526
-0.667232 0.823567 -0.677158 -0.0825604 -0.900715 -0.426494
-0.234535 0.964245 -0.178817 -0.234939 -0.930896 0.279707
-0.240896 0.943704 -0.177827 -0.597473 -0.614122 0.515635
-0.231261 0.939481 -0.185346 -0.560651 -0.724163 0.401571
-0.453679 0.709705 0.328188 0.277468 0.481714 -0.831242
-0.467169 0.710937 0.330648 0.196473 0.521204 -0.830509
-0.0830111 0.614743 0.193124 0.353966 0.47846 -0.803607
-0.243389 0.832678 -0.0412997 0.537921 -0.131464 -0.832681
-0.252935 0.837163 -0.0337015 -0.544816 0.122588 0.829546
-0.236838 0.821642 -0.0241044 0.557861 -0.122149 -0.820896
-0.468478 0.741901 0.310831 -0.252523 -0.349211 0.902377
-0.457929 0.754244 0.295593 -0.273008 -0.245018 0.930286
-0.0720879 0.59529 0.196368 0.408146 0.537575 -0.737855
-0.0705484 0.612538 0.189199 0.322384 0.554689 -0.767065
-0.19972 0.128745 1.03701 0.79028 -0.60486 0.0979862
-0.194913 0.141258 1.04784 0.782304 -0.609988 0.126152
-0.194607 0.124149 1.04246 0.791742 -0.602987 0.0977245
-0.710145 0.287762 0.580154 0.198415 0.342708 -0.91825
-0.188224 -0.163442 0.533285 0.427751 -0.460848 -0.777591
-0.17316 -0.171181 0.543634 -0.389848 0.372446 0.842201
-0.181325 -0.167011 0.522485 0.442099 -0.54739 -0.710572
0.509985 -0.00804094 -0.465971 0.810773 0.0976 0.577167
0.50461 -0.0204889 -0.452093 0.791123 0.1275 0.598221
0.555067 0.0833192 -0.494776 -0.905714 -0.04324 -0.421679
0.543527 0.0443358 -0.456065 -0.880106 -0.038378 -0.473223
0.56927 0.26945 -0.60624 -0.927209 0.210767 -0.309615
0.570281 0.254688 -0.596247 -0.942774 0.126641 -0.308445
0.563994 0.262445 -0.615723 -0.920094 0.228848 -0.317893
0.568782 0.241078 -0.584302 -0.948787 0.00175294 -0.315912
0.535409 0.281708 -1.00707 0.447472 -0.484665 0.751577
0.548148 0.270634 -0.99331 -0.523031 0.417079 -0.743293
0.536372 0.2667 -0.998305 0.493303 -0.405484 0.769568
-0.327412 0.191055 0.989532 -0.359737 -0.460787 -0.811335
-0.321358 0.192862 0.993566 0.51546 0.361077 0.777126
-0.31264 0.192551 0.986072 0.0651654 0.722391 0.688408
-0.220234 0.963306 -0.18054 0.15617 0.974385 -0.161814
-0.844089 0.446925 0.370426 0.552707 -0.593524 0.585017
-0.833954 0.452384 0.37682 0.574178 -0.541087 0.614447
-0.837589 0.467528 0.368343 0.5218 -0.57665 0.628649
0.567569 0.284718 -0.615823 -0.922087 0.256308 -0.289936
-0.371205 -0.0639996 -0.0142699 0.0127803 0.535464 0.844461
-0.334168 -0.0861962 1.07239 0.198607 0.619285 0.759632
-0.481684 -0.0905286 0.953337 -0.550579 0.727053 0.41019
-0.480747 -0.102395 0.933492 0.481791 -0.705345 -0.519968
0.565825 0.299645 -0.6257 -0.926472 0.282344 -0.248862
0.560616 0.292704 -0.635209 -0.931515 0.243794 -0.269897
0.559108 0.307583 -0.645135 -0.956545 0.206304 -0.206057
0.56253 0.31559 -0.634498 -0.9481 0.265456 -0.175041
-0.2902 0.0470509 0.870591 0.82738 -0.473149 0.302609
-0.286055 0.029436 0.880092 0.82323 -0.421728 0.380049
-0.296577 0.0402162 0.861595 0.827769 -0.457011 0.325482
-0.289782 -0.0505081 0.942449 0.665405 0.124499 0.736027
-0.298824 -0.0560056 0.934916 0.643114 0.132006 0.754307
-0.291967 -0.0424463 0.918892 0.716396 0.0117573 0.697595
-0.377852 0.845377 -0.606363 0.0159746 0.918676 0.394688
-0.396079 0.836672 -0.615458 0.218464 -0.947817 -0.2322
-0.385591 0.8494 -0.596867 -0.193377 0.979414 0.0579098
-0.454663 0.813187 -0.646078 0.238145 -0.970532 0.0368166
-0.485347 0.831574 -0.656239 -0.34641 0.915941 -0.202616
-0.467233 0.840242 -0.647234 -0.277268 0.938571 -0.205445
0.579571 0.140172 -0.325521 -0.989074 -0.127597 -0.0738313
0.576995 0.129286 -0.316297 -0.970922 -0.211944 -0.11131
0.57895 0.131207 -0.337786 -0.987428 -0.0972187 -0.124638
0.312309 0.857285 -0.707122 0.765513 -0.627008 -0.144401
0.309155 0.849214 -0.717747 0.745365 -0.662607 -0.073369
0.303747 0.858126 -0.721691 -0.380472 0.860702 0.33828
0.546899 0.0574715 -0.468525 -0.895452 -0.0686035 -0.439839
0.557847 0.322498 -0.655241 -0.976597 0.184155 -0.111112
-0.414274 0.82803 -0.624509 0.249111 -0.967556 -0.0421684
-0.445043 0.846416 -0.634732 0.367489 -0.903761 0.219471
-0.296814 0.0658898 0.862549 0.814359 -0.542224 0.20691
-0.302485 0.0587652 0.853047 0.806112 -0.535751 0.251306
-0.293228 0.023049 0.871522 0.827837 -0.414379 0.378122
-0.389088 -0.0625478 -0.0238223 -0.0482826 0.48978 0.870508
-0.153979 -0.442885 0.653619 -0.499466 0.68628 0.528728
-0.0485215 -0.124624 0.0429049 0.0691787 -0.956404 -0.283737
-0.949506 0.0756059 0.525242 0.682759 -0.681112 0.264435
-0.102694 -0.232461 -0.119601 0.192565 -0.799889 -0.568416
0.0487393 -0.195985 -0.0368761 -0.00722071 0.917586 0.397473
0.223552 -0.129443 0.00163069 -0.389087 -0.89387 -0.222725
-1.05562 0.146519 0.329442 0.841322 -0.0622627 0.536936
-1.05726 0.133124 0.340871 0.833405 -0.147771 0.532541
-1.04904 0.153156 0.338148 0.861718 0.0150929 0.507163
0.183314 -0.155396 -0.0075103 0.237302 0.91634 0.322504
-0.884819 0.604191 0.267989 0.73188 -0.218203 0.645554
-0.923543 0.255134 0.504565 0.621997 -0.296665 0.724645
-0.878324 0.196215 0.567995 0.49786 -0.508257 0.702717
-1.0531 0.0755302 0.380406 -0.909698 0.343619 -0.233185
-1.05812 0.0684141 0.370547 -0.886987 0.360929 -0.288071
-1.04895 0.0598011 0.388444 -0.875431 0.42585 -0.228632
-0.874597 0.683352 0.0638892 0.814986 0.132099 0.564224
-0.864855 0.703205 0.0600922 0.824761 0.0614636 0.562131
-0.870991 0.696583 0.05081 0.839597 0.0620009 0.539661
-0.669867 -0.214637 0.580859 0.104436 0.911309 0.398257
-0.683807 -0.222088 0.573084 0.0965025 0.912444 0.397659
-0.661094 -0.221222 0.570725 -0.127131 -0.904799 -0.40642
-0.83434 0.179741 0.601332 -0.429686 0.364582 -0.826105
-0.847648 0.175414 0.596659 0.460917 -0.393335 0.795514
-0.83423 0.165418 0.611634 0.428438 -0.503613 0.75021
-0.893421 0.598274 0.260409 0.747805 -0.164622 0.643185
-0.790801 -0.00852306 0.665686 0.353742 -0.342794 0.870264
-0.792197 -0.0224094 0.677051 0.309149 -0.357706 0.881177
-0.776304 -0.0186119 0.680661 0.349772 -0.362424 0.863891
-0.0261956 0.0581102 1.2668 -0.939128 0.144207 -0.311838
-0.0312783 0.0448133 1.27165 -0.982895 -0.00385515 -0.184127
-0.0411851 -0.368126 0.713096 0.0391019 -0.685374 0.727141
-0.0398624 -0.359689 0.710748 -0.00872843 -0.660072 0.751152
-0.0559831 -0.360807 0.710894 -0.0160069 -0.696644 0.717239
-0.262502 0.106516 0.931567 0.787015 -0.616062 -0.0327866
-0.254532 0.0979499 0.939053 -0.823456 0.567231 -0.0130237
-0.258048 0.089684 0.928457 -0.838039 0.541661 -0.0655324
-0.324109 0.163168 0.925289 -0.212184 0.841351 0.497099
-0.335878 0.169364 0.932165 -0.0228604 -0.818333 -0.57429
-0.306121 0.172753 0.949697 -0.319386 0.844712 0.429481
-0.494025 0.108866 0.59999 -0.658318 -0.400708 0.63722
-0.494605 0.0918046 0.608662 -0.660834 -0.340428 0.668885
-0.484377 0.104594 0.592671 0.702341 0.369067 -0.608693
-0.241688 0.927281 -0.169912 -0.655641 -0.373538 0.656205
-0.232038 0.923032 -0.177445 -0.671796 -0.404386 0.620614
-0.24061 0.912158 -0.159631 0.684306 0.211977 -0.697704
-0.231001 0.907903 -0.167125 0.663446 0.235157 -0.71031
-0.628592 0.446074 0.457985 -0.0838752 0.74342 -0.663545
-0.637257 0.462787 0.453132 0.0940152 -0.724436 0.682901
-0.645924 0.442741 0.455998 0.13116 -0.774135 0.619283
-0.113264 -0.24241 0.652841 -0.238586 -0.246437 0.939333
-0.467406 0.726868 0.321127 0.231169 0.437654 -0.868919
-0.454023 0.725428 0.318349 0.292654 0.409055 -0.864308
-0.455814 0.740175 0.307386 -0.290698 -0.335234 0.896166
-0.575988 0.640432 0.397109 -0.125265 -0.531665 0.83764
-0.576709 0.623715 0.405434 0.103915 0.565237 -0.818357
-0.561547 0.623478 0.404356 -0.150608 -0.533149 0.832508
-0.0834974 0.652948 0.168142 0.103744 -0.383565 0.917668
-0.0960802 0.649652 0.165303 -0.22027 0.223327 -0.949529
-0.0997745 0.644192 0.171782 0.160054 -0.171736 0.972054
-0.472866 0.108645 0.793485 -0.510917 -0.354806 -0.782992
-0.476733 0.106954 0.784744 0.342106 0.412585 0.844238
-0.484214 0.104039 0.787403 0.468309 0.260804 0.844197
-0.467556 0.0779767 0.584711 0.786288 0.36456 -0.498846
-0.470924 0.0655996 0.594203 0.814619 0.269532 -0.513564
